# 3D point list with one line of data per point:
#   POINT3D_ID, X, Y, Z, R, G, B, ERROR, TRACK[] as (IMAGE_ID, POINT2D_IDX)
# Number of points: 357, mean track length: 6.3751724137931038
3706 -0.10437522384909757 4.0855975812085115 7.5000414191012617 15 17 14 2.5770763219402797 13 1478 2 1012
6915 72.920671039364237 -14.481846790325882 20.793429532080932 146 150 149 0.26980516134177818 25 1430 30 1502 32 1859
2997 -13.537789264602559 2.2243479746670087 116.72020825861119 98 85 76 0.66064436020655704 9 1214 14 662 15 1411 16 960 27 1300 28 1728 34 935 18 921
6206 14.623123852977352 10.662746831379424 16.529214771679435 111 113 110 1.2327848945218522 12 1302 20 1619
2555 15.67067414732243 11.89466359960079 15.561246482970382 35 40 36 0.41226309300896702 14 845 9 1406 6 859 18 1496
4048 2.52721507906515 2.7712673332562283 12.988696260001149 85 14 24 1.0523733941849338 2 1075 10 1052 8 1035 22 586 3 1284 7 745 4 998 29 644 20 894
2221 3.9306330204450877 12.938522471516489 21.94195257333838 73 75 72 0.39740169173030288 15 676 14 1362 9 1334
3714 9.1519824150774784 0.036008631446458397 12.627190982864406 160 146 89 1.9458806142109324 2 1068 8 962 5 67 3 721 7 170 4 182
6923 13.368349797356661 7.2309187036410183 15.639837149836218 106 108 107 1.4927905152954168 31 1759 32 1918
3005 25.938134848326698 12.088233380213415 98.108378003290213 90 74 58 1.990032479931596 15 1525 18 990 11 779 2 655 8 901 18 1101 22 482 17 1077 3 875
6214 4.4330719995368719 3.1751381499408029 12.583285744652089 83 0 0 1.7428889244014787 24 998 34 585 35 1659 20 1710
2556 8.415052740314481 5.1308451433481972 6.5424317492793413 46 48 45 1.209850732863865 34 787 9 1432 24 1592
4049 4.9470773596953022 3.2452022063174861 12.252520621225871 154 148 143 1.093737393641468 2 1352 10 1053 22 1224 23 1397 3 1299 7 675 4 1001
2222 -7.0312882326561468 13.282843863961027 24.218789805712348 80 80 78 0.54092538141240876 19 1672 28 1187 14 1367
5431 37.982087933439516 5.4447999905766951 75.498891754467891 153 153 146 1.2601348020965393 10 17 17 17 22 18 23 21 29 22 31 42
3715 5.1701524219465096 3.0039340656678033 12.565265776500491 84 118 64 0.61368067106826651 18 559 2 1077 8 1298 22 1463 4 1020
6924 9.5087243585797481 5.8890191559161087 13.158115790965253 58 59 54 0.40930587871291524 23 1367 32 1921
3006 50.086958402970041 -2.1470211591393169 72.7368377840817 7 4 4 0.62354959809961386 14 773 35 1632 18 993 11 1277 1 660 17 1203 23 1126 29 1395 21 1603 25 1266 20 1419 26 1609 31 1588 32 1704
6215 76.047627689547099 7.4398854515404809 19.935424867226324 62 61 57 0.7747258810014066 21 1555 23 1450 25 1064 29 1571 20 1715 30 1586 31 1412 32 2131
2399 9.5350114547351463 1.1758840328148616 12.008439008517007 97 176 153 0.086794664020809778 14 617 9 617
3892 8.7285842135648544 2.0972017387037378 13.589234835992896 49 72 101 2.3534661774869092 9 1093 18 1358 2 760 8 650 35 810 5 581 27 813 13 641 24 742 16 669 34 608 28 799 33 678 19 795 15 747 14 648 9 603 6 601 18 656 11 627 12 636 1 405 2 567 8 557 5 1219 27 1774 13 1283 35 1212 24 1695 16 1539 28 1572 5 1177 16 1788 28 1567 33 1271 19 1505 15 1061 14 1455 9 918 6 700 18 1361 11 828 12 769 10 494 10 556 22 630 22 1307 17 697 17 941 23 748 23 1469 3 553 3 584 7 506 7 1163 4 474 4 478 29 749 29 1078 29 1557 21 499 21 1472 25 658 25 1719 20 706 26 525 26 910 30 508 30 1530 31 507 31 1573 32 965 32 2039 32 523
3183 60.481066261088323 2.1181165103102284 49.048302045694491 133 133 131 1.4096772376069251 5 632 11 822 13 843 12 630 2 264 22 561 17 1268 23 1227 3 267 25 802
6392 18.77842276558189 11.547983909468554 16.997753835398552 63 65 62 0.12676567519088805 25 1701 26 1853
2232 1.3689807733237209 0.42675137324510898 2.6935575877792983 165 157 143 1.1535875600935621 34 1494 14 1477
5441 89.524783887762354 -15.053014215822021 63.833973884700534 150 152 149 1.6249343442653166 11 55 12 55 33 107 29 65 21 65 20 55 26 60 30 65 32 908
3725 -0.9046955053846395 12.660120767508577 41.52205523000687 50 52 49 0.32264935155418228 18 1607 2 1189 8 635 4 599
6934 17.478218786144527 10.540639558086232 18.304731362731737 84 81 74 1.5062600682489387 20 1636 24 1027 26 2001 32 2028
3016 46.932570124386658 -6.584547334039069 73.557429360728165 102 71 50 0.82952256100171873 14 1119 18 1055 17 1218 29 1212 21 1349 20 1782 11 911 25 726 26 822 30 1100 32 873
6225 35.840659583237837 10.782308675268618 5.9646740668266984 44 43 37 1.6505364240765645 29 700 20 647 21 1794 30 733
2223 0.20984454132755787 5.0736544838032449 7.2493568344728914 67 67 65 1.64620532329722 24 1597 14 1370
5432 5.1941564096319111 9.4099541649818175 16.341586529646051 38 38 36 3.2256048116214746 5 861 29 29
3716 7.0221002089180828 2.9386249516418732 13.17442449478553 203 203 203 1.2725182729229598 18 359 2 1091 8 628 10 449 22 597 4 1244 21 1535
6925 5.4304207730411607 4.529249261611211 9.1414821477382642 68 69 64 0.26222739663865102 28 1939 32 1922
3007 48.953414869207151 -2.6542563768835987 71.622662134402887 49 39 36 1.6622761726833313 6 912 9 1157 14 1239 18 997 6 918 17 1181 17 1199 23 1119 29 1409 21 1600 21 1602 20 1412 26 1603 26 1996 30 1689
2653 -9.1574721130241112 -1.4969683093994375 112.84399168465045 159 159 159 0.1752516269083676 9 245 14 294 15 336 16 462 19 405 24 489 27 406 28 406 34 252 35 491 6 229 18 233
4146 10.763160968741552 2.7064300040737108 11.365967747870938 213 218 214 1.4865346437029145 10 103 24 654 35 539 22 192 17 305 23 452 29 455
2728 7.5953459156222554 2.8127398452829357 13.710467275218768 62 64 63 0.40501022726195607 9 901 6 665 18 955
3119 45.198914426658888 2.4314066595571981 92.322570356680956 174 172 163 0.42305950867255115 5 401 13 267 33 435 11 318 12 303 10 231 22 250 17 261 3 260 21 324 25 288
6328 65.994633291591029 -21.106095341729358 27.655644145789868 45 33 26 0.72319394415857063 11 1376 20 1299 21 1290 26 1489
2300 -11.254656566915868 10.61781007731231 109.66122423034724 112 120 118 0.27448168321267596 14 115 15 146 16 150 19 167 24 147 27 164 28 154 34 97 35 170 9 103 6 98 18 74
3793 43.008524663339934 10.450857333300531 45.726798359809081 166 152 126 0.38050173257640135 2 411 18 700 8 369 3 410 7 403
3084 10.169455585298055 1.7565900401725232 11.101094957743724 129 193 145 0.21284730962324785 14 887 9 919 6 1126 18 683 27 1139 35 1208 16 782 34 1059 13 1278 19 1185 8 1132
6293 73.923519822029903 -9.5136425331362418 18.962477690901846 165 173 175 0.79954832195678804 20 1358 21 1113 23 638 26 824
2616 4.7074301004075902 5.4304438088957427 10.106569765188064 33 35 32 0.093949561610933235 9 19 6 28
4109 51.340818020992423 3.0455078442886543 47.921586944316793 51 24 2 0.84545390230221107 5 99 13 63 33 103 22 56 3 51 18 58
3605 12.783471560333956 12.623024965184676 61.750982635824009 170 156 129 0.31699934030586496 18 511 2 410 8 398 10 404 22 859 3 426 7 340 4 277
2896 28.719924208534469 3.3921502746911729 68.542756318350243 6 0 0 0.94903760987733909 33 35 18 34 13 50 11 30 10 24 8 27 22 32 17 31 23 43 3 30 29 36 25 29
2449 -7.701768021223014 13.244176682149419 29.741035385388898 73 75 72 1.4405702444238884 27 1887 28 481 9 862
5658 4.4177864282454102 2.4737113986676897 12.21787804514824 166 61 64 0.71178352165671066 29 453 21 436 26 936 20 1673 30 1086 31 1886 32 1281
3942 12.05388534812295 1.9547658052246191 12.417333180154641 229 238 231 2.0232590646464517 8 69 10 261 2 58 18 63 7 62 4 65
2498 47.807736437517612 -2.873546728023729 73.821558427822438 70 60 42 0.47042568908944027 14 804 15 1314 35 1911 9 1159 6 921 23 1129 20 1353
5707 4.8581319970025243 -2.0630442409709189 4.8029090487292976 22 2 0 1.756999812264082 17 1243 21 941
3991 0.60464186839824785 6.7506983010215125 10.598190040028969 142 143 137 0.6415030325909391 8 1152 10 694 4 455
1991 1.6524360268270759 0.0871745255062438 4.8660787095065983 73 75 72 3.1630418548327608 13 443 15 1761
5200 11.017018410979832 11.534957342254154 55.484407124288545 169 155 126 0.39284329257317757 8 1089 10 864 7 793 4 640
3484 9.7909027791835612 0.43295787943775133 11.178617042987199 131 200 50 0.5486598112479697 15 361 27 769 1 438 28 764 35 650
2775 14.835020525765994 10.758948194619551 14.834879309920135 34 35 30 1.3566873732402196 14 875 6 900 29 243 18 749 21 218
2740 47.043064008777655 6.0079289136474516 74.064766990071377 71 55 40 0.36197518787841593 19 1004 6 739 17 483 23 1208 29 1043 30 1055
3138 76.581842770733729 -27.155901194653332 76.858493356118572 140 142 139 0.40240028630024655 5 512 13 708 33 554 34 392 11 454 12 680 21 614 25 543 30 643
2731 -9.4231818295704333 13.336394875378399 51.012950545579862 39 40 35 1.7866135208592271 24 1042 6 681 18 1129
3308 8.8508523548897973 9.5473797542784631 25.43176475698376 62 64 59 1.2123528136629869 5 7 11 25 25 26
2489 -16.98075314343285 14.085517157955005 113.84455056221316 40 37 34 0.23593274742668582 14 1034 15 1524 19 1514 24 1754 27 1825 35 1641 9 1098 34 1324 6 1198 18 1060
5698 57.406758545709295 -11.168730375883213 27.328270384783682 50 16 13 0.77318062276670274 11 1176 23 789 21 855
3982 32.536384284167447 5.8912263152068771 67.177692681857621 36 12 1 0.34024727731005933 2 611 8 594 18 1097 10 645 22 1357 17 834 23 921 3 729 7 608 4 563 29 1058 21 1008 20 1670
3311 10.316451220039969 -1.531553277918557 5.6158368681083912 189 191 188 2.3967477234809964 33 41 12 35
2155 5.8966286503049377 2.9051510340962077 13.681473081421911 79 33 32 1.5564158932941059 15 881 14 937 9 373 6 356 18 781 3 668
5364 8.1673369010777304 3.4887606808737339 15.826381105492214 209 211 208 0.03221262578768222 7 1130 4 975
3648 -5.047777450030825 46.708770724040967 130.45041164616325 71 71 69 0.87296373327588239 13 1446 2 664
2939 -1.662478544667376 12.896517348282403 43.915147686886598 56 58 55 0.85995402441716173 13 407 18 389 5 372 2 663
2500 62.718653900170288 -3.4649993478413834 82.44594718262266 14 12 13 0.37266344329397771 16 1491 24 1326 34 1407 9 1163 6 928
5709 14.372727255291077 3.1887486292211635 10.123086294762302 158 152 129 0.87811625637841595 13 1193 21 953
3993 -2.7061918719618312 11.95781069047675 19.882490893252104 52 52 50 0.47509822367868743 8 1162 10 703 4 1116
3149 4.178448464344342 3.5273031290023114 4.7810602734009473 58 60 57 1.8728487201173616 14 1509 11 573
6358 9.5982258191127237 2.0433546311590551 11.923853423922942 68 148 144 0.10577463316699084 25 1347 26 1875 31 1583 32 2040
1958 0.63473240378725426 4.4392155207849422 10.528949676598762 152 154 149 1.2560665043665455 35 1591 15 1712 6 1401 8 1282 2 1289
5167 8.7137798699712352 12.248330329867194 52.162925348955049 156 144 118 0.26245003462950567 2 1018 8 1074 10 1139 7 562 4 888
3451 16.257393605221974 -1.5399849238342456 20.237456599637135 39 29 30 2.0401068580057893 16 13 1 7
2742 -14.402295458562053 2.8494610617493255 117.89520502627985 42 37 28 0.86222190217787009 9 785 14 663 15 1124 16 1558 19 1617 27 1338 28 1734 35 1833 6 746 24 1303 24 1302 18 940
3140 49.698703690491136 -5.4435390086917419 74.183659285899125 53 41 42 0.87803764253222361 6 811 9 332 14 788 11 466 18 334 6 1000 1 367 17 377 29 414 25 648 20 696 26 401 32 496
2733 4.4820680246474396 2.6976084868499082 12.04980038198477 102 18 18 0.2456647514792554 9 564 6 688 18 788
5942 70.135492271062802 -16.070977813445818 20.756733357868836 154 156 155 0.77246891268481244 29 1218 25 1156 31 1418
664 5.6254355923096107 3.2671973072677001 13.184143454560946 146 148 143 1.8322334170867576 13 495 24 1717 16 1434 35 1658 28 1781 33 585 19 1532 19 1653 15 652 15 1413 14 929 9 931 6 1377
2157 4.3070678352448528 2.5378653266867346 12.269896945370263 130 26 25 0.12738855384387143 15 1367 14 951
5366 3.5393633386794341 2.5936288462425239 13.079910828168998 188 159 130 0.022533846848028852 7 1189 4 1011
3650 27.996738680665413 5.46874982187129 71.924034957636735 158 131 91 0.37390357348560321 11 1209 2 683 8 603 10 643 22 553 17 467 23 406 3 743
6859 72.468073794970039 -11.101962916242297 56.115480351520183 165 164 162 0.85277965114316678 31 173 33 266 32 257 5 214
2941 19.809189450255253 -2.6735644393209856 91.324418080162971 38 19 12 0.82455307223979346 9 793 28 1005 35 1152 18 425 16 1488 11 921
2503 8.6071832155312222 -2.7084655945550238 13.159800677396927 159 138 115 0.50011440031821852 34 1204 9 1175 6 636
5712 1.7947395818415386 0.21871743468638391 2.6879802478745187 177 173 162 1.4524217389583183 35 1286 21 973
3996 -3.8510996298712299 13.536407576166747 62.228252884912692 148 132 104 0.51229440377972912 9 1583 18 1351 10 722 6 703 14 944
4075 1.2638497214432696 12.946235461428552 34.6323688130691 44 46 43 0.96474465555256139 35 1103 10 1240 27 487 28 533 7 1184
2657 -22.600148128689398 11.832970269348277 122.0163448174779 86 86 86 0.70344729728589772 9 273 14 258 15 310 16 317 19 535 24 353 27 287 28 334 35 352 6 255 18 321 1 147
3741 31.024443464067538 6.4100977462661737 67.95430389566981 73 70 49 1.3535364347668819 18 792 2 1342 10 651 10 1002 22 884 22 1159 17 839 23 925 3 727 3 1340 29 1024
6950 11.994856273953857 4.3068137766166119 6.3977936572672389 105 102 94 2.487890563286308 20 1583 31 512 26 323 30 1823 32 310
2736 50.141946614862121 -4.9024198001388006 57.440789141045222 91 66 30 0.31792498541457742 16 1755 24 1225 34 1360 6 708 18 1087 22 1020 30 1656
3146 48.683507193875649 -4.5408653475409162 71.941994644114445 13 9 6 0.15186156952451005 35 897 11 514 23 828
1990 7.8919254519510185 4.2099080619905109 7.6491444406253573 59 60 55 1.2237145007188288 28 1436 15 1690
3483 -12.095572528437941 3.2565590068937604 109.0367175963847 89 70 63 0.51364433482199379 6 204 14 311 18 213 1 430
2774 0.41497789778439448 4.7692383644049032 10.926559281795189 65 65 63 1.4920333825521233 9 1582 18 733 8 503 2 524 10 717 2 1294
3820 4.0778159751468186 13.104018224195633 56.752352444660296 173 159 133 0.27124269557767888 2 1338 18 1356 8 645 4 658 10 1150
2428 51.085499512319281 -12.658556271003151 87.268917164443977 193 190 182 0.43783187510098431 14 732 15 1023 16 1034 19 1098 35 922 9 751 11 1107 12 1088 29 891 21 1148 25 1473 20 1019 1 828 30 607 31 1033 32 897
5637 7.9720705667854128 -1.4620372117962168 14.233163501091727 81 136 36 2.0218173414302192 3 310 21 211 25 256
3921 -6.969844222817029 13.926464234908474 103.08939603910073 107 91 75 1.396449782023379 16 631 18 83 10 83 6 114 15 232 19 171
4088 0.92170996038712405 -1.8091924067236613 4.880988924540687 145 133 112 3.3393381789634375 14 1359 10 71
2670 46.219477637252332 7.4649831601174457 74.375016210447029 88 62 42 0.37561145114436889 19 534 6 302 10 283 23 515 22 476 29 461 21 500 30 486
5879 41.783316428436464 11.694150289380469 10.192491088735729 44 46 43 2.196898239636123 25 609 26 1764 30 1882 31 694
2454 3.5722070729822808 4.2447089999501246 6.5108203861842364 64 66 63 1.4076209121441423 35 1721 9 880 27 1547
5663 14.93401674389948 11.546540466238428 16.917013168768193 47 47 45 1.1149591437218582 29 677 21 462 30 1174
3947 5.1957030871647554 4.2468112462183756 8.4141629885268969 2 4 1 1.7621169524665479 11 200 10 307 25 160 32 1890
3173 23.647168746037149 11.246643564974727 18.432087109566833 59 61 58 0.60989587121222222 33 1125 11 693 26 1758 31 794
6382 10.794399252948068 6.0821579741648808 6.041108501157014 56 58 54 2.0121562112101317 29 1683 21 1876 11 380 12 1247 25 394 26 1154 30 1216 30 1764 32 478 20 646
2691 -14.206517261741565 1.5674148589297376 119.50594918027286 15 8 0 0.71535973118277918 9 444 14 487 15 946 16 737 19 1128 24 1105 28 1074 34 929 35 789 6 432 18 525 1 532
4184 70.460786494442686 3.0831371172229605 54.549257495839228 1 0 0 0.6744486845666432 2 302 5 366 11 642 13 405 33 452 22 357 12 620 17 480 23 531 3 321 25 614
2766 6.5270902974433618 12.449417263997621 18.15647142984476 16 18 15 0.45623037212373468 14 877 6 855 18 983 8 1273 22 1343 17 1438 23 1530
2190 8.1187261795683021 -0.75003593189957729 12.903574885501419 10 4 13 0.1170796974580932 19 1834 14 1204 18 1091
5399 27.165299880001093 11.254547066465339 63.293220687456945 132 118 101 1.9124132037675301 2 827 10 537 18 832 22 1213 17 763 8 748 7 411 4 804 8 850 22 1390 7 958 8 847
3683 49.456390049454718 10.508707190450062 48.755983251133436 194 182 167 0.25483879180085844 6 1250 18 840 2 863 8 753 10 636 3 1112 7 972 4 683
6892 15.11713533390015 10.253567171097981 15.234647027597815 0 0 0 0.26864361717561958 5 492 25 1698
2974 -9.5192333111103142 -6.8091673539807536 108.507090588981 157 158 162 0.85711880865349677 6 809 9 732 34 1500 18 704
6183 79.705727568605838 -8.5030645062771892 23.20431323120124 106 108 107 0.89867756837638646 23 802 20 1328 26 1526 32 1736
3131 72.055128896048998 0.29822364042376537 52.243166573075243 129 129 129 0.34627349409898489 5 412 33 427 11 405 13 388 12 301 22 391 23 436 3 266 29 554 25 677
6340 35.542365680133706 11.110228337185347 2.5194467562283527 53 47 37 0.33535841110356124 21 912 26 1759 30 1217
3468 23.519032968463012 7.6125786359410466 61.525860801877393 0 0 8 1.2217204582151711 14 187 18 71 1 146 6 89 9 69 2 51 3 54 7 47 4 46
2759 -18.665005752035263 -1.0169024457011775 114.77546800591344 177 178 173 0.26473299663935956 9 803 14 680 16 947 28 1022 6 826 24 1096 34 960 18 946
2649 -19.619364735965185 2.5678334799181668 112.77167583393522 115 117 114 1.2535288432896345 9 213 14 273 15 250 16 306 24 335 27 493 28 399 6 199 35 826 19 1017 6 1078
4142 76.463267595290588 -0.77836874351357288 40.756040527440426 2 1 0 1.1462583848099448 12 191 22 184 17 199 23 189 29 274 21 373 32 332
2724 52.63850849341194 -5.264241048671396 62.668158536911442 155 113 24 0.38855493933583574 16 909 24 691 34 898 6 634 18 498 22 539 26 843 32 914
2148 -1.2608113777757 14.039253982308768 102.19699565769965 106 94 83 0.38119232354480864 14 904 2 402 4 417
5357 18.618980689572677 12.077571364350117 50.412570898098132 155 143 121 0.26538671666922459 2 983 3 1141 7 882 8 1097 4 869
3641 1.0304309127808389 13.187540480019436 60.954351324163007 178 164 137 0.74776235466580321 18 1615 2 622 10 1146 7 572 4 673
6850 82.874931719118834 -25.667699217262243 44.495272111475842 180 185 179 0.92954052676161225 33 116 32 132
3145 14.719620018012941 6.8905094561716895 15.015122119009515 53 55 52 0.72457425442743462 13 742 11 511
6354 21.538971559789715 11.528209343650245 12.5007544913244 43 45 42 0.49732809405715939 20 1617 29 1661 26 1859 30 1722 32 1966
4156 64.331114184924232 2.8195759932014774 42.77906753761112 5 4 1 0.49139166262204376 11 294 33 294 22 249 12 258 17 328 23 417 3 220 29 457 21 477 25 438 20 476 26 527 31 488 32 508 32 2032
3655 2.5823975618575115 2.8442518267109245 12.717083923490552 71 8 14 0.81394091184556538 18 741 2 725 8 808 10 303 22 395 17 404 3 480 29 450
6864 10.833744157560231 5.1862265440416868 6.0422689027433991 57 58 53 1.2047227259164499 12 101 20 431 32 319
2946 23.538611736154273 11.362842652383129 97.14087119198777 67 47 38 0.62375359556206844 9 626 18 472 11 545 2 465 8 728 10 345 22 484 3 461 7 240 4 260
6155 63.757394590105868 -19.218613768583552 29.757672533953237 183 178 169 0.76383681971831097 11 1017 21 827 20 947 26 996
2575 -4.2332777891514084 13.096687478414577 27.509392784704602 93 95 92 0.46042268290245247 16 1666 9 1573 6 1417
4068 7.0599359435000002 3.1611031673304861 13.497069382659038 229 231 228 0.14542155847858804 8 1002 10 1170 17 1558 4 948
3946 8.0190222641028726 4.063400075225772 7.1384737338266708 53 55 52 1.6165973581415236 13 1240 18 1502 23 845 7 285 8 935
3105 18.38690493416459 2.9431615744110267 15.569801500993357 1 2 0 0.87105502420555969 33 34 11 153 13 39 25 150
2286 5.0566634026060457 4.2713692722782355 8.1442549722487119 43 45 42 1.2481684931608681 24 62 34 79 9 46
3779 6.8570790390938967 12.643614676766409 44.368996230076029 50 51 46 0.60816112446892978 11 274 8 159 22 196 7 145 4 161
3070 12.830964570826801 12.009926496938599 15.798026776624644 61 63 60 0.74971387566480119 6 1272 18 1540 17 1360 23 1519 29 1596
2611 3.25826053122542 1.0352905023057992 9.2435542374194775 239 241 238 0.32838821015883224 9 9 6 23
5820 73.215252975398869 5.9364193774694645 34.346788220199748 2 2 2 1.5750709319112353 17 149 21 342 20 830 26 686
4104 6.7098275227499258 6.5008793233529021 10.823439732005188 29 31 28 1.8458834521060052 2 618 22 16
4179 67.689086471912546 3.2344872761037551 33.131673936398229 150 145 139 1.146403534547908 11 629 12 551 22 329 17 507 23 518 21 509 25 1623 26 524 31 442 32 2053
2686 -16.708175229599078 2.904678884891041 116.53028977564313 43 36 29 0.31262837066583843 9 447 14 980 15 960 16 922 19 1016 24 1109 34 942 35 1128 6 422 27 1339 28 1733 18 460
6961 10.241025531777625 0.99204804076041075 11.040184566688852 91 145 118 0.99204792272753617 20 729 22 627 26 807 32 752 11 236 12 209 25 241 31 481
534 8.7909361427514181 -29.016077054677059 106.94286692080141 141 139 142 0.34376552396262244 5 968 27 1478 24 1428 34 1227 28 1521 19 1235
6952 51.212858426630945 -0.6555289024281431 70.859241530554613 144 137 137 1.0599672634264687 35 1804 14 786 9 802 6 828 18 865 11 1268 17 1212 3 605 29 1309 21 1614 26 1409 30 1703 31 1597 32 1502 16 314 35 287 14 205 9 237 18 238 20 333 21 248 26 273 30 255
2027 5.3438762214082036 12.415870023893897 19.132605421953585 24 26 23 0.48040612012981665 15 149 14 120 9 109 6 129
3520 -12.772764565976377 -12.765876974050096 67.635505385198798 87 87 87 2.1812438764641566 16 336 24 280 1 457
6729 70.318921151214312 -5.493910341882156 15.246420130087657 122 123 118 1.0130399902349629 20 680 21 593 26 754 29 353 31 730 32 804
4024 9.4034310252858155 0.93007263945832919 11.992604238139185 41 94 73 0.62754498019344684 9 1105 10 892 17 749
3315 12.850024232368845 2.9939891554383844 22.121015878746928 83 59 41 2.3129589947437039 13 120 12 65 33 208
704 1.8553728118183996 5.2575313288754479 11.246850211231914 107 106 104 1.6879438014678958 35 741 27 501 24 695 34 414 12 1334
2197 53.9162727905167 -2.5163743448029434 70.427539098277109 44 40 39 1.2618717027900748 24 1286 14 1238 9 531 6 483 18 876 1 659 29 1397 21 1604 20 1420 26 1612 30 1119 32 2167
5406 10.306558692843838 0.44878339861537747 11.213544064493721 135 203 58 0.83358697412199489 11 104 13 74 33 91 7 160 4 174 2 336 10 256 8 267
3690 27.213713426126191 8.88091354430534 68.654412501399293 8 8 0 1.6876049429004385 9 716 2 902 22 1080 17 1330 4 545
2981 -3.491045302309459 12.942259303397075 29.013118796397883 57 59 56 0.7260092018218991 24 1806 18 736
2106 8.5387072224618521 12.466529634657951 19.692791846300633 31 33 30 0.38152542846966503 15 671 14 589 9 591 6 906 18 596 22 624 17 645 29 692
5315 49.224285782313252 11.028361993946676 42.216376638683926 40 35 26 0.34366299030291014 2 285 3 380 8 371 10 254 4 273
3599 50.146801918161451 10.525442016423867 60.813074651352302 19 13 3 1.055805574472533 6 570 2 390 8 387 3 396 1 836 7 419 29 1745
2890 -23.137444463725021 -4.7057478798131793 121.17421740341024 42 38 34 1.4541267862856677 14 1234 16 1119 19 1130 27 1812 35 1219 6 794 35 1096
2443 2.1663095053407968 6.6684421215905667 13.667188404649549 54 56 53 0.51854721084577649 19 482 9 834
5652 82.011507942259101 -26.836657456434523 72.604299814750476 105 108 106 0.24326970408118753 5 346 11 356 12 444 13 345 33 392 21 407 25 370 20 594 26 575 32 582
3936 1.3198189797509725 5.1512670525154061 11.087035668857364 104 105 100 1.4652260940897035 2 224 10 221 3 1201 4 1202
2610 -20.696660583595907 0.46717326798773601 119.3992386091039 92 93 88 0.81435536215506488 9 21 14 23 15 29 16 29 19 28 24 27 6 19 27 28 28 32 35 28 1 30
4103 22.544424306268773 12.455613245695529 74.713572742698545 171 153 133 1.7471155523664621 2 9 8 8 10 6 17 14 3 8
1939 -10.111734978439376 13.121405019362944 23.976099108528654 93 95 92 0.50289090936140524 19 1670 28 1827 15 1603
3432 5.751545886924708 6.8843318570272585 19.762040858495727 140 142 139 0.66873540708662893 5 1153 12 1347
2276 -16.837032516749346 15.326470350799388 56.944398019685224 180 176 158 2.4509288828258975 16 1694 24 1529 14 1482
5485 50.541059559978258 5.8207483368493289 88.099829681957573 131 122 113 0.40706297470596159 17 496 22 733 23 553 29 569 21 757 20 657 11 841 25 818 32 2058
3769 9.3157588075786748 2.8279521466038275 16.349900325119467 249 251 250 1.6340619093009261 2 29 18 28 8 31 3 24 7 17 4 16
6978 52.455315161522009 -11.068047877392676 86.274288131726507 170 160 154 3.3209967121282684 14 546 15 603 35 601 9 494 24 566 16 528 34 681 11 489 12 464 29 582 21 638 25 490 20 546 30 543 31 580 26 598 32 780 16 1037 24 841 34 910 35 925 19 1452 15 921 14 1117 9 752 11 1100 12 1083 29 1262 21 1458 25 1438 20 1090 26 1124 30 1505 32 888
3060 -2.5458191095802434 12.867627932513178 18.348367133788692 67 69 66 1.092008257605094 6 1304 9 1425 18 1470 10 1192 4 1155
6269 9.951156636796771 -0.22449057221346305 12.069554358096088 0 0 0 0.97513460838144228 4 350 20 526
2963 -4.6775848928496391 13.395805185203551 62.073804326921667 172 156 130 0.343356500516804 6 599 9 645 14 634 18 608 10 482
3125 78.039005534442509 -20.925001881272944 74.282235090953748 81 94 101 0.36502069127264164 5 302 33 335 34 259 11 363 12 354 29 346 21 286 25 378
6334 73.431786889172002 -6.8952109469069933 23.991271957573193 107 109 108 2.050221604690309 21 1101 23 810 26 1599
2643 7.6710748237733366 3.116099316010366 13.290456660278833 215 217 214 1.5572391469126932 9 128 6 181 18 250 2 248 8 304 10 291 17 1012 23 1332 3 235 7 205 4 327 29 1433 21 1537
4136 67.14647302270329 5.6892921372916589 27.765595025605098 20 24 36 1.2131535383296244 11 281 22 168 23 300 21 296 20 614 26 362
2142 3.7885689931388775 12.596254228437315 19.811534230838138 29 31 28 0.4666822408065418 15 1093 14 862 9 589 9 1302 6 540 18 591 3 509
5351 3.4455178970195206 12.0271030636936 33.169407698762591 55 57 54 0.26609419166709286 8 1036 10 1023 4 745
3635 8.5819176312505796 5.1184220678234196 6.6856691054858297 23 25 22 0.89854372627345891 5 1333 2 599 8 776
6844 15.663585328620982 -10.333599297322518 23.911509136426996 131 130 127 2.7473420765090282 25 113 32 53
2926 10.18086764532117 6.2439530663841936 7.4190425004209777 41 43 40 1.5602559686525181 6 1327 18 261 22 1465 2 648 23 1610 7 652 3 508 8 1275 20 1635 11 1392 31 799 32 736
6135 67.63077922814098 0.38232238617524295 18.047866114808912 143 145 144 1.0047464182354686 23 914 20 846 32 967
3167 14.214755881285049 9.8717615183788148 15.79871025368319 87 90 83 1.9512990698087709 13 1418 11 662 5 1393 29 1648 21 1838 25 1544 20 1656 26 1850 31 812 26 2021
6376 81.108273091267264 -45.046039271119049 70.926388996744151 70 70 67 2.2377901503332605 25 1735 20 1198 26 870 26 1327 25 1099 33 1056 20 1191 31 1358 32 1400 32 1445
2685 -12.289941580287776 12.196053270022663 113.80239193445675 6 7 10 0.32551377575741058 14 698 19 801 27 719 34 598 35 1192 6 417 18 802
5894 9.6762074924753332 1.6320533622180995 13.559607663526062 41 36 44 1.2715488051650037 12 838 25 716 31 1608
4178 31.058146418240401 6.2730205109537662 66.21869608612748 23 14 14 1.2732795160163362 2 276 10 332 18 322 22 328 17 335 23 420 4 396 7 336 29 366
2760 -12.484454398140038 -2.4795140654406609 113.19216870477193 84 77 71 0.21724701431379312 9 1261 14 783 16 1485 19 1388 35 1337 6 833 34 1419 18 1065
691 5.487337950359171 3.0426702689689931 12.931553702998572 77 111 71 0.11089958308361003 5 610 13 681 33 972
3677 56.077909486167691 10.276237992646445 67.204206459968347 5 0 0 0.1979623925415871 6 758 9 722 18 856 2 838 8 730 3 1008 7 645 29 1098
6886 11.198158875960209 -7.9660346090165639 19.030135548838452 91 89 83 1.7508164430290578 25 1703 32 1154
2102 -7.412123257650558 13.578112571110619 54.630705703692982 150 134 108 0.56620819202466921 15 896 14 565 9 567 24 1010 34 843 6 409 18 372 1 444
3595 6.3951737588648205 12.80791998565458 61.427949167683046 164 150 122 0.19486089329988976 6 696 9 923 18 612 2 380 8 392 10 500 3 292 4 233
2886 8.0476222207557075 4.0824718141595238 7.3540096091403289 89 88 87 1.8701645091102446 33 1514 34 1540 27 1209 35 1616 19 1821 6 1396 17 880
491 9.7123483494285807 2.1806720053851967 11.377344502859014 150 210 175 0.29325941611384138 5 786 27 1175 16 883 28 807 15 785 14 938 9 892 6 716 18 765 11 883 8 1118 10 1153 22 1287 17 1442 7 1132 4 980 29 1542 25 784 26 946 30 1596 31 1879
6918 47.933741791078063 10.599207431849202 4.2694784240131298 68 52 35 0.55506053953099699 21 1773 26 1803 32 1895
3709 6.5097788339316054 12.922263877085248 68.578769949012056 167 153 125 0.38734011361831938 6 625 2 1031 9 1090 18 805 8 703 10 858 3 938 7 524 4 702
2439 4.3010972682454698 12.282961836181535 20.919130028646116 73 75 72 0.48575697259887646 14 821 9 818 6 882
5648 11.124644671227298 2.1748650021322997 13.498492993766208 0 1 3 1.9594554442972612 29 1077 21 347 30 250
3932 49.280705745590929 10.215318584309973 47.954474794361346 45 39 20 0.27346282587891207 2 268 8 245 18 402 10 172 3 358 7 303 4 268
2272 5.21402567031679 3.6735535710756468 4.7554331792333979 23 23 21 1.1293413569620419 28 1772 14 853
5481 7.939289311513968 4.2323831140192683 7.5523575469185564 116 118 115 2.8608876154922642 4 620 29 498
3765 10.458149941176925 0.31254016854028349 12.131903350864823 180 218 108 2.1625859123963833 2 13 12 863 8 9 3 13
6974 63.782841424812517 -26.863775911218212 22.696388813783685 206 208 203 1.1194953039148228 25 956 26 1255 31 1347 32 1384
3056 0.31173102188833357 4.9667436258248756 9.0551529353357445 57 59 56 0.63658320307854277 13 1362 18 1436
6265 48.268974203949803 8.6253502853802075 5.5559056149625494 115 91 67 0.24824125437617028 21 313 26 322 30 305 32 311
2176 2.7104107161457587 -0.11112464235480655 2.7632414523741962 85 77 66 2.4704238682999788 33 698 14 1063
5385 10.975326247942244 5.3478192357547583 6.0614415678543434 47 49 46 0.12048774603213067 17 1320 4 1206
3669 1.1792882710398236 12.718414039758651 49.431272768875104 184 169 140 0.8257080868005412 6 1166 2 793 18 760 8 818 7 1149 4 932
6878 55.109389799072972 -5.4295236233585547 49.899492217727904 5 5 0 0.411499223068438 22 1021 32 816 17 1195
2960 4.2380507844072897 2.3988342251724748 12.872879477958463 130 117 116 1.2853034526934286 6 1173 18 573 2 322 8 307 3 333 20 459 26 355 32 469
6169 69.6009709548308 -43.516798950388171 75.346557074490775 54 55 54 0.23477334813258413 12 956 25 1097 33 706 20 1157 31 1304
2158 -21.533454383314076 14.224854295863196 66.974576759607899 108 105 91 0.62092670758388824 15 873 19 703 35 765 14 952
5367 5.2489912482075765 12.687305631355359 48.918349184645919 0 0 0 0.17850254629762008 3 1051 7 733
3651 39.315610695338584 5.3884649186130522 78.513675330156445 181 178 173 2.3668618913782891 13 1520 2 688 8 1174 10 915
3104 29.145937972090273 4.9056511257819286 75.166982075365127 166 171 170 0.86019578613141201 18 143 11 137 6 153 9 145 8 86 2 89 10 74 22 116 17 84 23 99 3 142 29 93 25 145
2622 5.504482275405862 2.2423926182390117 14.775357621464703 235 239 238 1.2846444419431626 9 59 6 57 18 42 1 76 17 38
4115 16.923631948771447 12.005266554900397 71.295719989774256 155 127 106 1.702603531689816 6 78 9 95 10 52 18 86 22 79
2697 46.770571351437503 5.3511226680696042 72.593528150589606 38 20 0 0.38501631382983081 19 820 6 451 17 484 29 550 21 493 30 445
3107 19.715209185041132 -18.667315132181557 92.611593326752171 0 0 2 0.3705254848743455 5 277 11 170 12 142
6316 52.79777519266294 -7.4934256050310744 78.167154295884671 122 95 62 0.60798690881209838 9 501 26 1234 30 1181
2288 6.5218234855979063 4.1208473618903101 7.5450935323554198 53 55 52 0.10220050795963867 24 229 9 53
3781 1.0134927928913424 13.090607245597212 58.642580504035465 194 176 154 0.40040447282009511 2 201 9 415 8 222 6 377 10 186 7 163 4 124
3072 3.1689335581312306 1.4171251704526211 3.9850504975416374 26 28 25 1.7651752393192535 33 442 18 1549 13 371
6281 87.424887888727838 -43.885679290528188 60.622825326902785 28 28 26 1.0558150901591221 11 501 12 493 20 388 25 196 33 330 26 621 20 192 31 196 32 207 32 425
2751 51.970425564039985 -3.8058234813767675 69.819287739442657 6 0 0 0.37177433580988772 16 1756 35 1317 6 784 29 1372 26 1600
5960 31.301195548743191 4.4832559714930778 68.334385770410847 156 151 142 0.60691121009425342 23 1228 25 1343
2512 52.249813886552296 -5.5351790893179356 72.479856236186237 16 9 10 0.53688831045904284 35 1957 9 1196 6 965
5721 8.9044899372064208 1.2368116634911159 13.51490605494009 1 7 23 0.6808906619397781 15 798 21 1016
4005 4.7909071241809933 2.5065064585199361 14.347695343885057 92 24 28 1.0700353861855658 8 1029 10 766 17 1448
682 9.6948428690391388 2.2404246540926596 13.659090154015098 8 15 31 0.82039763445759384 5 629 13 638 24 493 16 426 33 658
2175 -24.510092838698174 14.681696468679762 64.318073091961764 110 100 91 0.6437598441521668 27 1065 28 919 35 1069 14 1050 19 1178
5384 9.2836127357328859 3.9618686243815153 5.3339067104796936 33 35 32 1.5159993398790623 2 1303 4 1196 8 507
3668 1.171896524585295 13.005298055862802 51.26815419082056 204 190 161 0.64419631432179958 6 721 18 632 2 787 8 823 10 768 7 515 4 485
6877 75.746410269546729 -10.4120637776859 41.284424243971252 2 3 1 0.46870374347407268 25 484 33 508 32 770
2959 4.0108795651794882 2.4387664441784151 12.684658259119495 131 123 123 1.2965951414562711 6 410 18 571 3 336
6168 47.2629971792013 -19.0424913454533 19.888323304449415 133 138 132 1.9024374256056999 11 760 20 1144 31 1160
3132 46.044161794045991 3.1274517122585617 76.005338479003655 166 157 155 0.21702231857925497 19 262 35 341 11 409 14 211 12 403 17 268 10 229 23 290 29 272 21 327 25 425 20 308 30 271 32 334
6341 9.7740321108451518 5.7557555759453951 6.5297751273058262 0 0 0 0.70744988600669689 5 884 25 1580
2650 -10.912427540339184 3.3564980822980326 114.79840135491867 83 68 61 0.5060413062045922 14 312 15 364 16 478 19 390 24 474 27 522 34 290 6 203
4143 73.075515623294692 0.37553064433542599 51.940658390174491 138 138 126 0.45207929794007901 11 234 12 195 33 243 22 185 17 198 5 195 23 190 3 102 29 197 25 221
2725 50.88520638866428 -5.3199302915979683 57.361873592202905 117 115 111 0.33863882103824078 16 939 6 635 22 1024
2933 -12.401841737382716 -7.1120000769530991 114.35465426994642 118 119 123 0.30914570835500943 15 506 16 704 19 592 24 556 27 778 28 785 34 664 18 340 9 540 14 792 6 461
3129 0.16315813173137683 5.5673507640464317 11.924735888531986 0 0 0 1.235085740110722 19 1139 27 1320
6338 2.9638181442206113 0.061519200032972142 2.761690791746664 126 128 125 1.8568157924183759 25 1251 26 1643
3803 2.298303263249347 -2.0194179496617575 1.5115639476710299 38 39 34 0.73061542130732826 18 957 8 464
3094 7.0520180012351954 -0.34639975382395344 5.6807156146116853 169 171 168 1.5369115815378358 16 1 11 0 25 380
6303 9.0028783101650234 0.68519094663602709 12.913831011802444 0 0 0 0.69508144172900532 17 668 23 1432
2647 -19.631629394606652 9.0391990508215887 115.26574425406908 15 17 14 0.50266686967199026 9 142 14 147 15 225 16 203 19 335 24 253 27 292 28 341 35 211 6 194 34 299 18 101 1 256
4140 71.464148589199695 -5.6510539794241961 47.854437283591395 162 162 158 1.5629015995508428 33 325 22 176 23 293 3 440 29 291 21 201 20 681
2722 -27.665927297794529 15.534313979174105 106.60064738155388 27 20 11 1.3472223499957001 14 1424 27 1797 6 607 24 1726 1 633
622 0.31533243045264925 4.2852756735195703 10.829065229985389 78 82 81 2.336522416180141 35 1028 13 200 27 1601 24 1527 34 1571
3608 42.69715021000188 10.527125744419846 43.088439544656033 162 157 140 0.21559525111338076 18 711 2 417 6 629 8 680 3 557 7 532 4 707
2452 14.638476662924321 11.800031325080454 16.640580322007725 31 33 31 1.5891402036425095 14 1316 9 872 29 964 21 463 23 857 30 712
5661 3.4850357624591135 4.1683118469013545 8.7941125247704743 44 46 43 2.3700581550566415 29 707 21 460
3945 6.3614848715445511 3.245942103277923 13.862629584577503 229 231 228 0.28393104800000285 8 308 10 296 2 325 4 193
3171 10.588816006839739 5.0887633303907149 5.9965437413755849 57 58 53 1.6294143080879684 34 418 11 685 12 1331 25 1539 29 705 31 1766
6380 4.3714401580109774 4.2930221684811363 8.9411560907532213 97 98 95 2.1157992686171387 17 329 26 1175 6 1387 9 1577 3 510 21 914 20 652
695 -10.308008419347246 -23.207792471149407 113.16761064349819 155 146 137 0.30216759861119297 35 845 13 710 24 805 16 1000 34 1244 14 1151
2188 6.3678093829535865 -20.446835443651224 100.12929375968599 59 38 37 0.67011341278694048 5 932 16 1349 24 1233 14 1144 34 1179 34 1182
5397 5.2649822029001276 2.4086166864804217 14.959212544825016 110 48 66 0.6900122639509082 14 1442 9 1082 6 1130 18 1229 2 554 8 545 10 515 22 671 17 471 23 741 3 1031 7 775 4 317 18 415 2 369 29 1568 1 631
3681 2.5377495796736951 12.727930354241552 46.361930024356226 53 51 40 0.27510006244657587 18 1211 2 850 10 1166 7 721 4 1061
6890 4.3813702108258363 4.0719335586808629 8.2677925900368674 128 129 124 0.65955567774634027 31 1914 32 1236
2972 5.5313614456050999 2.3335331475294043 14.066736772852156 233 175 88 0.36630864360028981 6 1134 18 687 2 562 8 542 10 746 22 1290 3 649 7 452 4 513
3124 77.801717402436211 -22.00774697819708 75.285423949875209 19 27 30 0.23466858956010764 5 300 13 301 33 336 34 317 11 362 12 341 29 400 21 399 25 377
4135 28.946940461876718 9.0831284124400273 85.906845678855603 147 129 106 1.2499605353179759 14 256 15 313 18 216 22 159
2925 4.5100085552993914 2.5385050891133396 12.161902358299233 84 4 0 1.1613032675219956 15 427 18 251 2 327 22 446 17 411 3 231
2605 6.5054002607051293 0.14014738193723242 48.463123917811473 8 0 0 0.94807488226242731 24 0 34 1 6 0
4098 3.6009099609289548 4.1455428357740649 12.301543153252265 246 248 245 1.4290217812991763 6 9 22 4 17 6
4173 2.5380018295337385 3.3568006104728099 13.555795887460327 101 56 50 1.637351089521017 2 1080 8 1043 22 312 7 1040 4 1181 29 1492
2680 2.5598046304368172 -0.68840522082261391 4.1786972926617008 188 177 155 1.9590971747253492 34 1088 6 397
3764 7.2583754939685701 2.1802260682760859 14.733590341261912 241 243 240 1.5112932237796002 2 7 8 7 22 7
6973 2.3932156988014794 -0.7498828724363984 4.2474431741934646 203 205 204 1.038311087337086 20 1149 32 1206 27 432
3055 9.3521488161893842 4.8078822868403455 6.2484166373686483 0 0 0 0.16407367513354143 6 852 16 444
6264 72.726251475234164 2.756256786258064 20.127082265322962 171 179 178 0.2983479961396861 20 148 21 238 25 149 29 260 26 249 23 185 30 177 31 209 32 219
3123 76.993157606139391 -24.270635748646182 75.732085332461224 126 130 129 0.38322068734101006 34 265 11 360 12 344 21 402 25 373
6332 8.1326965774893711 1.2481394378264175 13.904226090722499 68 77 89 1.3784032499202254 20 1431 21 1631 26 1585 31 1960
2641 50.471304233535228 -4.7108022128140172 56.741025669312918 148 144 133 0.84281072178296734 34 227 6 162 18 138 1 174 16 230 24 388 22 174
4134 45.571086964294366 5.0244133204984847 76.983588509354419 152 147 142 0.29458890696468665 10 122 19 251 22 158 17 172 23 197 29 201 21 194 20 233 30 242 32 214
2716 3.9690776945269004 4.1999843893310542 8.8266596170192102 77 79 76 2.9590870698908516 9 1575 6 552
3122 31.988916864571117 -26.909332605939966 101.90982193841919 183 185 182 1.9556782040133698 5 343 16 402 33 560 11 351 12 327
6331 64.701248575190718 -7.585270536637446 27.676373451526125 1 2 7 0.058412830187914204 21 1385 23 1105 26 1565
2303 19.961822669326487 -10.433284094142627 91.96696766755926 18 7 5 0.63417363383296266 15 124 24 182 33 108 34 150 9 117
5512 83.350365262677087 -21.4279281331908 74.694353756022835 31 38 40 0.30852116694568438 5 849 11 927 12 834 13 876 33 929 29 883 21 872 25 879
3796 21.982651592871033 12.141800684056705 60.368183589826181 133 118 97 0.3856326024535377 18 617 8 404 22 638 17 1137 7 302 4 328
3087 9.7298233979397946 2.6939860305151209 11.509853588395206 34 91 96 2.0034440307827741 33 1545 34 867 14 570 35 1639 5 1388 27 1052 24 1154 16 900 34 1429 28 1601 19 1570 15 1438 9 1624 18 786 19 1829 18 785 11 1201 12 1131 10 1183 10 1184 22 600 17 1458 17 1567 23 1324 3 1075 7 1217 4 500 29 1455 29 1456 21 1523 25 1180 25 1614 20 892 26 933 30 813 30 1582
6296 58.618330783412752 -5.6355142030901808 74.814809159900648 85 87 86 0.65230023226986344 6 466 29 907 26 851 31 986 30 585 32 991
2640 -9.0998723328835585 -6.0644264290379732 113.19266235319891 26 25 17 0.22635385324733073 9 238 14 198 15 242 16 244 19 255 24 273 27 313 28 300 35 276 6 160 34 222 1 338
4133 69.024142462135089 1.789653114226829 32.801693462451674 132 130 118 0.81430954551067392 11 248 22 155 23 272 21 490 12 392 25 146 20 481 26 789
2715 9.0385583044031943 12.360499359764779 20.093906862455125 28 30 27 0.50082674842687969 15 675 6 548 23 686 29 441
2136 -17.439135600593929 13.784551166435016 51.297233079233827 179 173 158 1.2210501578722208 15 890 19 911 28 744 14 827 9 936
5345 9.8597467995335286 2.9531010216022002 5.7266115376818165 99 99 97 0.9327327081179001 22 1211 4 616
3629 5.2410040344357354 12.717144936417087 56.871105965554918 201 187 160 0.2174638036199335 18 607 2 549 10 312 4 244
2920 15.122164774836591 11.918665219767179 15.5266730940673 93 95 92 0.46829507488398436 6 141 18 188 17 215 22 206 29 167
3966 6.2266323948335049 12.997927649344396 73.092273078918964 182 164 136 0.45587321603966258 6 1228 18 1317 10 506 8 679 4 709
2139 5.8554968223421371 4.5705984027217186 5.9973239985476994 25 25 23 1.5418298905319745 16 1589 14 844 9 850
2923 -8.5174309462292666 3.25182989033781 109.78741418756196 72 61 55 0.28319927237819953 15 352 16 309 19 388 27 521 28 511 18 214
2638 -15.515600660135744 -1.308714581434963 116.81110978072483 75 63 49 0.29285670185924773 9 156 14 136 15 166 16 233 19 239 24 240 27 258 28 196 34 152 35 257 6 145 18 114 1 245
4131 10.420425212731969 3.680039143702333 6.0827391224565428 119 120 115 1.3367532275765215 8 100 22 147 17 95 23 115 3 47
2713 14.289783592821578 11.857669831420205 15.598070421320843 81 82 78 1.7029598020715091 9 264 14 358 6 538 18 1515 9 1373 29 841 30 1815
3293 9.7808749395171972 2.8549632787939272 12.058979706920416 91 160 158 1.1355473182480156 28 1607 35 1664 15 866 11 939 14 1499 9 959 6 1151 3 616
644 4.3086085952297219 3.2256881462532814 4.6740748246441655 105 105 103 1.3365720068835323 27 759 13 368 33 420
2137 -13.548166294956481 13.902715494472657 50.894472639357978 173 167 163 0.23521258539080897 15 889 16 1696 19 910 14 829 9 558 35 1592 28 1859 6 515
2921 9.1291276205024392 2.3453148493656761 16.286767299332574 184 182 161 1.7105212990032534 6 396 18 199
3177 78.11046808173144 -22.562149324432617 74.318127564050641 85 89 92 0.44022467859434411 5 420 33 880 34 979 11 709 13 695 12 739 29 1146 21 815 25 868
3851 4.1371021018175815 2.5337755485343814 14.285830014469479 252 249 250 1.7618216711714108 6 1101 8 999 17 624 3 1086 29 593
3684 49.251589810897023 10.353816131599009 49.668743057221334 153 138 115 0.17186055260637903 6 615 2 874 8 863 10 634 3 1102 7 965
6893 9.2997988555017042 4.373602196548557 7.4374633063441404 37 40 33 1.496026991914521 20 656 31 825 32 1308
2975 -14.255417626194221 -5.0964200495581045 114.04825402388038 72 57 45 0.17069949492201611 9 742 14 802 24 821 34 888 18 709
4167 10.780008691008799 0.52057604400129587 11.282928700292027 174 229 84 1.5678878526183522 18 406 22 290 21 370 23 254
2749 -6.4442942478807614 7.3744976631205015 97.954611812597904 12 17 13 1.4220419156509476 9 1042 24 1700 6 779 18 814 18 1116
2173 9.90653421827842 0.98874427843313695 11.089387377778847 24 108 91 0.5646591980700052 27 1305 28 1721 14 1041 17 1578
5382 1.1603508247064338 3.4393865828998731 11.017426517864044 226 228 225 0.11710481417952644 6 1407 10 1030 4 1188 30 1830
3666 -0.67774726963482257 13.193977442144893 53.367651061612079 175 157 133 0.44804917980058601 6 1111 18 1236 2 780 10 1188 4 520
6875 48.035331490679418 8.083216183003616 4.2719905846472743 164 167 169 0.39676058103806733 21 716 26 745 30 511 32 728
2957 4.8036169187759041 3.3134838087638654 12.201516228534979 175 168 162 1.3434581726794228 6 1432 18 551 2 333 8 318 10 304 22 430 23 514 3 345 7 317 4 287 29 449 21 901 30 1407 30 671 21 723
3581 29.340648191069448 6.5209945989811207 78.811568732041451 225 167 15 0.27013533522639877 6 299 9 318 18 316 2 303 8 287 10 287 22 262 17 262 23 308 3 257 25 297 11 426
2872 4.2771541681360112 6.3685559283257085 15.017476059657874 115 117 114 1.737306160385395 19 1792 6 1411
3115 72.558932620368878 1.3392140201206864 52.492916490327701 1 3 1 0.27550551357706271 5 269 33 260 11 246 13 266 12 252 22 253 17 264 23 305 3 124 2 136 25 291
6324 6.163922944607652 4.2674575074905849 8.2561399580186059 57 59 56 1.1225479074653175 21 1846 26 1414
2633 5.2624888189409509 2.6020957906873892 12.663082433278216 85 198 80 1.158477043219724 9 129 6 124 18 178 2 231 8 211 10 210 22 275 17 414 23 456 17 612 3 171 7 202 4 205 29 961 21 697
4126 62.550544976878463 1.360725342478309 40.64932364221535 5 3 4 0.75794728695642788 12 193 33 238 22 118 17 164 23 199 3 104 21 193 25 222 11 1309 26 250 30 240 31 243 32 242
2708 -18.063528275349405 -5.2780815658975468 112.16583705823145 1 0 0 1.3797422135653414 19 1353 35 797 6 501 9 1167 16 1168 28 1260 34 880 18 499
2296 4.5836002669101905 2.3480029172453807 14.865466509436342 247 255 251 1.9663233182979809 15 142 9 92 1 75 17 109 29 105
5505 58.541540704125204 5.7780027711598558 34.03481407853242 79 79 63 0.86049867109333789 11 840 22 347 25 780
3789 1.7678499168146171 -1.5905414201312442 6.401379741028669 159 145 119 0.41819340989907339 34 324 8 346
3080 9.4076264915565915 1.668911085597869 13.442643331896942 13 11 18 1.5844601427787728 5 129 27 267 35 267 13 217 33 241 19 164 2 101 8 57 10 61 3 110 7 60 4 64
6289 72.828847040542698 -7.3403001521395206 21.677721927904436 52 56 55 1.2517110954382902 23 806 26 785 29 1422
3114 9.4320671742934916 1.7044255097087586 12.182492697970874 1 1 1 0.82029167463993236 27 166 35 176 11 233 25 223
6323 0.54536034033632741 2.9039928616251127 3.4271296283746846 125 126 121 0.13936681505529785 13 1458 26 1410
2295 7.5376553302361904 13.310362304310193 92.870460072559581 147 128 114 1.0518868289972936 13 193 9 89
5504 49.889967433948868 10.326951239889857 64.364025629073993 89 94 58 0.75097503323886783 3 810 14 422 29 768 6 575
3788 9.6554057018645665 4.5410496949990735 6.6265865876207801 55 52 43 1.5280140703890202 18 259 8 330 22 578 17 433 7 315 20 330 30 308
3079 28.034029247327812 2.8459860023266974 69.13556530475978 7 2 0 0.50570144343541146 33 1329 23 1309
3113 17.133560227713371 12.12758693225542 19.972366452287257 49 51 48 1.1772945127510528 5 130 33 225 11 216 25 202 20 183 26 235 31 223
6322 89.026612514347065 -43.639846746565951 61.388180941614827 104 104 102 0.70073097615288316 11 495 12 486 25 961 33 1091 26 1357 20 387 31 1350 32 1336
2631 -23.410166723622545 -0.10947169882936941 122.82754000415885 90 90 87 0.24327364484537214 9 110 14 110 15 121 19 125 35 180 6 107 16 115 24 115
4124 65.573764648269901 2.7148015229094855 37.235845693539304 134 131 122 0.47388000733539343 11 140 12 120 33 151 22 115 17 120 23 131 29 155 21 139 25 147 20 158 26 174 30 163 32 154
2706 -14.706717893873391 -4.5049672565613879 113.83892330329483 16 2 2 0.35602301401020836 9 533 14 770 15 915 16 917 19 1397 24 1322 27 901 28 1040 34 892 35 802 6 498 18 494
2294 49.462770379235479 1.9509762864346416 69.740383002381051 167 136 106 0.59296608329161038 14 86 35 107 9 73 6 83 1 150 18 105 3 101 29 140 21 148 20 154 26 171 30 169 31 149 32 156
5503 49.436905788128769 8.187715297960084 87.790395776978983 119 112 96 1.0368074084412748 17 526 22 489 23 273 29 737 10 422 21 481 19 1050 30 494
3787 12.063453974451331 -1.8947727385033579 10.212881223515948 9 1 0 1.7962151346420432 2 310 5 278 8 283
3078 -10.132891801538447 -4.5585095734726711 110.79196745235075 123 116 98 0.19379439695283029 9 1162 16 1512 18 1604 19 1361
6287 10.672701081542471 6.4374897005894445 5.9828761247605087 59 59 57 1.3567185163245239 12 374 26 733 32 889 20 433
3109 16.652256870216352 -1.2861214320910026 8.9066124076741726 2 2 2 0.88046334852421571 33 83 11 180
6318 46.795647570632916 10.018129423759575 6.7957947132787977 143 127 111 0.19386765309784804 21 1363 26 1240 31 830
1953 -15.215859604432962 13.964295076313013 44.978526536390689 63 61 53 0.24514152729087874 27 1587 35 1581 15 1703 14 1413 9 942
3446 15.886139776411238 -25.234469454786407 98.456698578206172 55 37 27 1.4845552603295211 13 711 15 1005 12 688 5 904 28 1492 11 526
