# 3D point list with one line of data per point:
#   POINT3D_ID, X, Y, Z, R, G, B, ERROR, TRACK[] as (IMAGE_ID, POINT2D_IDX)
# Number of points: 409, mean track length: 4.6662189388851578
1449 3.3533017960179889 3.8460298076684052 9.2338204208252641 60 120 101 1.1442473514641986 4 181 13 499 2 400 1 349 6 545
1448 2.1678027782828906 3.1438326340588154 9.0303286304617743 88 126 88 0.15004822466086631 15 475 13 492 2 395 1 411
339 22.65837056251566 -34.198750506878689 112.19888776724949 202 202 200 0.35481666233375575 10 333 11 478 12 457 9 521
320 -5.1592156418441819 -23.439433448971606 121.05145221177077 49 51 48 0.10661636451210747 10 370 11 374 12 381 9 259 6 225
1429 -0.8857997496131782 2.374022460509758 12.881484170700102 99 111 99 0.2014099639681953 15 496 13 364 2 292 6 565 10 604 1 332
347 5.2394654708183621 -35.048094576771682 119.73248218257979 113 109 101 0.64118743352172869 10 332 11 476 12 478 3 301 8 247 9 245
1456 3.4396846026950478 1.7999232340662488 9.1571170817656888 0 107 100 2.4800187518380596 4 752 13 535
318 -0.10793454484609737 -29.190796678978948 119.07168330559931 188 188 183 0.55794433675918487 10 387 11 362 12 373 3 463 8 481 9 464
1427 -3.2737924765932007 2.6215854954212503 12.659009294409975 96 112 102 1.5462584258533516 8 872 13 361 2 296
314 -6.8383648804926738 -31.853826642982909 116.80320169111471 92 93 87 0.1850296043726759 10 337 11 457 12 362 8 484 3 342 9 432
1423 -5.9276608885132482 -0.53334016725722633 11.119183301895729 30 27 21 1.5438801316135091 12 504 13 334
313 -9.5132698433144434 -29.245652469291588 119.2502214467742 118 118 116 0.55681624979355115 10 384 11 264 12 361 8 473 3 340 9 587
1422 -5.6771328603330025 1.1003196992873632 11.304769352096075 1 2 0 0.17012870527433055 4 411 13 320 2 224
1416 6.1060639109004216 14.346953175715184 101.0553541071835 88 71 48 0.18135372851715961 4 391 13 285 1 247
307 -6.9376356455825094 0.81000388093830999 10.423464533265046 4 5 4 0.20986821325791086 11 379 12 333 8 526 4 497 5 456 7 455 13 216 2 166
330 -6.8998136825409517 2.7783560249414929 10.488001530429649 48 78 19 0.16315961040145688 11 432 12 424 8 672 4 477 5 560 7 560 15 344 13 244 2 207
1439 -55.059898120890097 6.9656567355538135 77.26996325459497 86 53 19 0.23411129381050247 4 613 5 758 13 454
1412 -0.474549931106451 2.4400695943673978 12.991425214519854 34 53 47 1.0692200234671145 15 493 13 275 2 403 1 232
303 2.4137969093590859 2.245909546387455 8.7085850093396004 29 121 75 0.89362606685768897 10 430 12 315 9 330 6 388
1386 -47.265620304875327 11.956511028029283 76.646315479057932 81 66 51 0.4263244734569504 4 285 13 153 5 354 1 86
276 -4.1228959513309906 -25.862046490172379 120.88599773580889 145 146 141 0.29888467795981555 10 260 11 268 12 224 8 255 3 231 9 251
1385 -41.52238205211799 10.007015835465719 72.393794051095966 8 0 0 1.0461886398753906 4 243 5 271 13 152 1 140
1379 -2.6786041828134666 4.0056727023311716 13.257882261376501 23 37 31 0.31710011982186553 7 13 13 134
1372 2.595496354770265 0.71631856819368978 13.212883842908909 156 158 156 1.1746461430550177 13 107 2 125 14 145 1 148
1321 -6.2488655389096195 1.807266517731789 10.911331247344224 4 6 0 0.4509281960619097 10 1021 11 717 15 746 2 412 12 735
212 -6.0875701831612528 1.6148261905523194 11.043131300717365 79 78 64 0.12499327986270981 11 1123 10 1069 12 1109 15 866 13 724 2 533 14 810
530 -2.3203752781421856 -21.709884217434055 115.367165362283 107 107 104 0.54021524734993454 10 952 12 1235 8 1061 9 954 6 761
1639 54.076606220737489 -14.263921697984202 93.222966007395328 188 188 190 0.29759430295714706 10 531 14 367 9 486 6 501
228 5.6892204798461163 -33.831234886233418 114.20989696959008 105 96 89 0.6242882914123008 10 37 11 35 12 19 3 22 9 22
231 2.4690727441271987 4.4966526341806237 9.6430106370480253 19 135 134 0.49651792136589357 12 33 8 23
1340 -3.2524415286358157 2.5708658063866348 11.307445671752205 60 76 65 1.0528976192285195 4 630 15 514 13 350 2 225 1 229
241 3.6826676986548241 -29.793260836357135 119.01374304990546 198 203 200 0.33688753115282011 10 68 11 76 12 76 3 86 9 73
1350 -5.8516596321589534 3.9757204352936562 11.231358783583905 0 0 0 0.72328059736709305 12 291 15 18
253 -6.41797193078503 0.93525454299742294 10.797091341987377 3 0 4 0.21804524921445223 11 68 12 119 4 82 10 60 5 107 7 146 15 73 8 104 13 77 2 67
1362 -4.1420248483182283 4.5650250195526123 11.09261957146745 142 144 141 1.0636473695164947 5 71 15 42 7 114 13 47 2 43 14 44 9 52 1 24
255 -17.8686416822779 -26.993302355226906 118.26198142434851 75 76 70 0.41613298755158351 10 109 11 155 12 126 3 145 7 137 8 109
642 -22.275846215987993 -36.773131469346865 121.2580223616099 72 71 61 1.131117440631302 10 1093 11 1187 12 997 8 1052 3 617 12 809
1751 40.255347135686193 -29.101255523883715 116.23415686970071 63 65 62 0.26693510359136879 11 359 9 457 6 400
643 -1.52107340496016 -24.601674557106286 122.67643299842678 96 98 95 0.59104425905555402 10 1054 8 1060 9 987 6 851
644 -4.2263792854708981 -2.4041190295334838 25.483452057374969 0 0 0 1.9531257614846917 10 1176 11 1239
1753 33.82974141297052 -35.441474675490419 114.85296370014512 103 105 102 0.24593160506907386 10 522 11 484 9 462
645 -1.860339649515383 4.8531846370353957 6.2987029007622217 139 142 135 0.55424496316575478 12 1159 8 1072 5 876 14 771 9 1001 6 806
1754 34.809969010676696 -32.933662599758556 115.00954534434925 105 107 104 0.10376581099285402 10 382 11 472 9 463
649 -33.588233038856053 -36.003739028259957 126.08852516787202 34 26 14 0.39893175541835108 11 51 12 52 8 52 3 53
650 -36.832894004572935 -29.968911743552294 126.34346059648959 67 67 59 0.35525601123506245 11 123 12 127 8 108 7 107
651 -36.332266691153741 -32.139182120062252 122.19853981031011 151 152 147 0.15767078024684475 11 184 12 178 8 179 3 149 7 136
1760 8.8359964072113062 -6.2026949981115616 113.28810974896047 181 182 177 1.2818003986518589 11 656 9 488 10 340
652 -47.820285685664778 -31.139990117735703 118.15602810065364 113 114 109 0.76318472495889089 11 217 12 267 8 254 7 230 3 338
1761 46.949477912459031 -4.800755527532794 77.955249154906255 155 154 152 0.3620010764585293 14 422 9 496 6 447
653 -33.644319267497167 0.24063891843061758 121.44582939438101 133 138 134 0.82117481480156496 11 211 12 325 8 345 5 137 15 141 14 152
1762 48.920763739756822 -7.5767829035165866 86.272401017475673 3 3 1 0.40933266875338375 14 437 9 509 6 417
654 -41.447760262946012 -10.901490960760476 128.37698742831867 26 28 25 0.30284842870613471 11 341 12 473 8 410 5 221
1763 49.307623996230298 -33.519772739711883 111.0880956542496 144 146 143 0.13684710127120928 10 785 11 538 9 513
655 -36.034810681103771 -43.110671288505131 130.26045260475101 8 9 4 0.61472184853998657 11 479 12 484 8 444 3 344 10 323
1764 35.789523327846865 -35.486644288970361 115.40464599905323 105 107 104 0.23450805927108029 10 523 11 540 9 518
656 -27.625958177773871 -41.335486544371982 127.55785881527613 9 9 7 0.52880113733272671 11 468 12 482 8 446 3 468 10 326
657 -40.844115492649912 -42.181606012934303 123.01267976183119 69 68 63 0.19605782484527634 11 451 12 456 8 447 3 471
1766 37.633339826261043 -29.44746538342406 123.79039348261408 108 110 107 1.8703389491212128 11 507 9 547 6 629
658 -35.122300877354853 -39.447486985283412 116.38579460342498 84 84 76 0.34258045319716679 11 551 12 519 8 449
659 -28.625901752360829 -41.597875943140018 124.55210073146924 88 88 86 0.53276360440356152 11 449 12 485 8 450 3 346 10 239
1768 15.731352690058102 -28.17096939624988 116.69780612153534 123 125 122 0.15736478557890235 12 371 9 557 6 535
660 -65.220889320248816 -35.620616599623666 122.40885934772743 107 64 5 0.43393068355127823 11 477 12 440 8 470 7 388 3 549
1769 -1.3411778453370879 3.247439699091851 12.654315911845774 105 128 118 0.039379155683675268 10 582 9 584
661 -55.156218458432022 -33.461105472423313 116.79240162023848 110 64 0 0.24601711989299022 11 473 12 365 8 472 7 389
1770 -1.5421278761783725 5.0345085382908934 6.519476945812869 120 122 120 0.43031185855510412 14 333 9 585
662 -44.780593100566115 -33.201285584650513 116.93717208072601 69 68 61 0.83941860137995694 11 470 12 363 8 474 7 396 3 462
1771 3.5834400774908728 6.9333091073797419 8.430888487297219 59 61 58 2.2831197064603517 10 76 9 595
663 -55.803828227681791 -34.785937218175818 116.21205737121933 7 0 3 0.32194221910552112 11 254 12 464 8 476 7 391
1772 13.874184149574578 -6.568369962124696 120.40020070529214 201 187 182 0.79193725762565181 14 526 9 674 6 843
664 -42.203429358432814 -36.305761336226176 117.46880008513651 8 8 6 0.16998635880929089 11 481 12 475 8 482
1773 51.765387376062073 -4.2005568512032001 91.156771556089254 57 58 53 0.39962317557597005 15 579 9 695 14 612 6 592
665 -25.710925658822738 -25.298648218477354 127.85004328262835 29 27 21 0.64877924550454091 11 493 12 576 8 507 7 497 3 514 6 401
1774 48.726255406462293 -4.079395155596206 67.942086972829927 179 182 179 0.52552858481933662 14 576 9 700 6 595
666 -30.003732948745128 -40.865092973047979 125.47072542489418 10 11 10 0.11456511440531665 11 547 12 528 8 513
1775 25.898643935592396 -36.919136557845327 124.15036141589052 105 107 104 0.12446887516865962 10 739 11 789 12 512 9 708
667 -24.935560002291332 -37.220402318337982 122.79762501715665 35 23 7 0.52238036672326005 11 792 12 535 8 534
668 -36.98110553046606 -39.622120929620401 120.44815570255334 52 54 51 0.12146060317810263 11 548 12 527 8 536
669 -35.683958200900783 -40.494989044206179 122.00675518609299 26 29 22 0.15530842144557905 11 549 12 522 8 537
670 -40.920679313024351 -41.88258413827991 118.71593291597415 21 21 13 0.24448139264732424 11 555 12 641 8 540
1779 -8.4032281279699443 -24.215408795235458 120.31719265198743 95 92 85 0.90921584749282758 8 559 12 569 9 736 6 631
671 -21.502758585389611 -45.877537621134081 118.25798778037046 102 104 101 0.66009246789166354 11 455 12 513 8 555 3 351
1780 47.598295789569896 -30.389957900820384 110.18407859989441 118 119 114 0.19247713235754738 10 763 11 581 9 739
672 -38.86315730887295 -30.810094754885309 121.10968138928438 91 84 72 0.14808041501926511 11 566 8 556
1781 44.723513800225206 -30.786196062112523 110.87560496086816 119 121 118 0.31279571370882453 10 776 11 684 9 740
673 -52.429532714681692 -33.576457211328282 123.1129319015099 42 41 36 0.30858410774081679 11 776 12 490 8 569 7 464
1782 23.4196077274954 -29.409285388131138 116.35263315719307 111 111 109 2.3427927618538553 10 491 12 364 9 741
674 -46.841854239829708 -32.834804972120359 120.77157495372171 50 42 31 0.28706202592640995 11 576 12 499 8 570 7 466 3 551
1783 47.581239633244493 -33.054807128220936 114.90931795192307 102 104 101 0.14582324737249525 10 781 11 784 9 742
677 0.83071731758882017 -39.084331685192211 125.85467717115777 118 120 115 0.4660940693736062 11 541 12 524 8 730 10 515
1786 41.117969323317261 4.7785049722723185 74.575803572753287 43 45 44 0.51329684846936696 11 601 14 412 15 386 9 792 6 607
678 -42.950221933180394 -24.851448978085354 119.26906026250285 84 87 82 0.23370703641343193 11 711 8 764 7 631
679 -59.087852447187437 -27.494140601457172 122.60730143534245 77 79 76 0.37621096779461144 11 780 12 986 8 765 7 630
1788 45.709847020954996 -5.5413038816818823 79.394482107749397 86 81 74 0.33000437703562291 14 577 9 843 6 598
680 -52.536974200453308 -33.849163368405726 120.8097962226572 64 57 48 0.25998268270428743 11 781 12 803 8 769 7 642
1789 4.1602371338835686 0.96196619812025574 115.94557035989816 97 86 74 0.17614621162676616 4 433 15 574 6 615
682 -25.889573403395062 -41.06587694963806 122.30762339651339 30 30 28 0.4123918196548601 11 745 12 960 8 920
1791 -3.3205296411870426 2.2796878024730898 11.496312030891371 100 107 100 0.21010777592239469 14 802 9 857 6 768
683 -7.1696936599292735 -0.37723232341876317 10.105158212229052 129 131 126 1.3089186180234804 11 257 4 6
1792 -5.7030175980469657 4.3085093227484004 11.353017027176824 40 50 35 0.097788225918736857 10 1018 9 870
685 0.064307757099871132 3.7752012153492283 15.492969897470081 214 216 213 0.81694612116620957 4 8 9 423
1794 22.916108405211919 -32.259894785853163 111.96783925180264 101 103 100 0.79888421967282486 10 966 11 950 12 762 9 875
686 -2.4046554591219116 3.3084811275442676 13.521100471875428 215 217 214 0.85867317930703191 11 384 4 10
1795 48.20756486388003 -31.921592747667635 112.24400637741208 95 96 91 0.099405141974439282 10 965 11 783 9 878
687 -0.010373723266525966 0.39388300165419199 15.598963654678593 4 0 0 2.1602867832511894 10 731 4 16
1796 7.2871997923741025 -22.627222314475457 121.42778977997787 117 94 45 0.15984068726677392 10 906 11 1240 9 883 6 774
688 -6.017403631565962 4.1302420643430473 11.375375822061693 28 51 25 2.5935035749383091 8 22 4 19 5 30 7 22 12 17 13 13 14 8
1797 2.2487328704806426 2.8489616594633653 12.655320031331224 39 44 40 0.68106883452116196 10 1143 9 928 11 1022 6 882 15 846
691 -0.73940086701765018 4.3191490558200458 13.046368097272302 32 1 0 1.0288183004424432 12 41 4 37 5 31 8 44 7 41 15 41 13 27 10 31 2 28 14 24 11 38 9 23 6 29 1 26
1800 1.7214104012597398 15.715851776431784 127.35436399661096 56 34 29 0.63913621749096261 15 683 9 1008 14 720
692 -46.365739090324595 -0.00020954070140004826 104.53721035842132 1 1 1 1.1402411360855116 8 127 4 44 12 113 5 56 7 87 3 127
1801 45.177180370561139 2.8091088094155694 77.984260009011464 96 100 100 0.47792090912850443 14 835 9 1018 15 733
693 -0.84953382946896328 -0.19118703536562959 14.819044027920709 22 14 3 0.13233869324829106 10 103 4 47
1802 44.864338032727773 4.5233005443371308 77.449399721557484 126 128 128 0.22153258117504429 14 819 9 1023 15 688
695 -52.909323918364592 -4.1710434426550869 121.22598729438735 65 46 26 0.88101220776710976 8 131 12 128 4 64 5 60 7 63 3 131 15 51
1804 -1.8977898447352861 -7.1286002753869813 94.8710279104412 163 164 159 1.2144797116634685 10 12 11 16 6 13
696 -6.7284222250612986 1.1776669243057598 10.563678659815277 96 100 76 0.37562466511512915 11 58 4 76 5 68 13 39 8 88 2 37
1805 -1.0576597336893496 4.0936025079252101 8.3231055486920287 0 0 0 2.0705913119499204 8 118 11 206
697 -2.8956318432011887 0.35649882305646519 13.327859836858648 2 3 1 2.2348340402648588 10 59 4 81 5 780
1806 -2.3059990883163812 -0.23358746316999687 11.321942151592598 68 56 63 3.5206930218190751 5 57 9 345
698 -1.3962341718423725 -1.1419886266878709 13.555082095885137 1 2 2 0.33561517299222376 11 356 4 96
1807 -2.8062779745703863 3.3656636378540798 11.566221620885679 65 77 64 0.46084160769479299 10 465 9 425
700 -3.0575298614771205 3.1108365588173887 12.948127183211129 25 42 34 1.1455377780892038 11 437 4 106
1809 -6.5340536374907074 1.8476255656335274 10.802095795349063 10 13 10 2.2411358610044552 10 724 12 1174 15 666 2 513 11 1119 10 993
701 -24.1843097505934 -0.0836812078105863 116.58495323365497 139 138 133 1.2441755918356125 12 135 4 107 11 212 3 188 15 65 14 70
1810 -5.1887313129749382 5.110900767654277 115.46188493256729 0 0 0 1.3876535312852427 9 3 14 0
702 -1.2296166655086689 2.3612746013953476 14.417788502280692 85 113 101 1.8558066475899806 11 304 4 113
704 2.2412109017372996 0.026658447214828958 13.526820196470517 8 8 6 0.38765334085298214 8 216 4 121
1813 5.7540965090295435 2.4354013208410774 15.473219370690941 17 143 139 0.87766085139396555 9 18 6 19
706 -55.299240623870055 -9.5816664653052079 116.09848324819255 18 14 5 0.27232877560567109 12 169 4 129 8 233 5 145 7 196 3 312
1815 -3.5018773195786728 3.0169137538996518 11.412472309804484 23 35 21 0.2105942956308563 14 47 6 30
707 -54.770781205976476 -5.78348372280161 116.97023423481545 21 15 5 0.43688503876191803 8 180 12 172 4 131 5 140 7 150 3 246
708 -69.083837800916058 -5.2279144708436442 101.77560736687846 26 18 1 0.4192855384903072 8 301 4 140 5 234 7 202
1817 48.795729777804105 -4.7381336432935335 68.226701671200146 183 185 180 0.49394199230257491 9 56 14 38 6 40
709 -66.816853480179674 -3.2829627494679361 101.13826313916654 152 124 1 0.36252440321741641 8 306 4 141 5 238 7 209 3 215
1818 -14.723650093985762 10.585173291013218 116.33489211383765 89 63 38 2.0169891258435482 14 74 15 69 6 54
710 -3.187852821226635 0.027801271276493508 13.198459389986475 181 126 26 0.22185483689001181 10 143 4 149
1819 27.243018266637332 -7.3612680924301062 53.411050844946445 0 0 0 0.33955805897290353 10 93 14 116
711 -7.017041231809614 1.1743075471465501 10.377481903307096 0 2 6 0.2231975689767281 11 114 4 155 5 210 8 235 7 271 13 142 12 167 2 92
1820 -17.54392137849916 -15.8027356369905 122.13639610209047 104 94 82 0.46474512133803364 5 148 11 236 12 227 6 135
712 -3.6960162625075954 2.3509748940493842 12.883465791753585 83 111 100 1.4326899274614444 10 49 4 156 5 328
713 -8.0018446028070489 4.3660865031882343 10.246476894289277 199 201 196 2.3702253792111385 12 472 4 169 5 240 7 340
714 -43.874633730066542 6.2125410913997703 91.742859994465888 130 125 100 0.67626096109549894 12 454 4 188 5 195 3 271 7 176
1823 2.7358964790902505 5.1910107553449567 5.9961483522674639 109 110 104 0.58668066754830672 14 334 6 183
715 -3.708885144117458 -0.3994827655541151 12.434000453257443 153 144 118 1.0873317518939078 11 150 4 191
716 -5.1598864065671455 0.055243985104632326 11.470401299817036 209 141 24 0.593467646801634 11 65 4 201 15 289
1825 11.581735609383097 -6.0728624252455292 118.3849977447835 188 187 179 0.26940041556402788 9 291 11 348 6 196
717 -3.1913031025284937 -0.19785409215856317 9.4537052012572396 123 87 4 1.1204301240833723 8 350 4 204
719 2.5986340566023531 0.29658060819368992 13.226966308581286 221 225 227 1.2599318029000266 8 357 4 206 7 662
1828 21.788981470712496 4.8575439317797713 122.56147303541998 59 61 58 1.0301806586092168 15 205 6 213 1 123
720 -54.265100045505569 -7.7279076625586915 110.82077159504436 118 114 103 0.98774180267368894 8 365 12 661 4 207 5 228 7 361 3 314
1829 -3.7017316016346369 3.6287938902639469 11.399765659692875 0 0 0 1.1397111772762787 9 189 14 87
721 3.6528841558588176 -2.3633936483360349 18.139050295954846 134 135 130 2.5802486181057174 10 255 4 210
722 -50.535711945431601 -6.309936049105608 128.28460290836153 59 47 25 1.0057814548765025 8 302 12 314 4 221 5 141 7 149 3 315
1831 1.6163018116247634 2.5535044921773902 9.3864987778537632 26 27 21 1.3010777000972724 14 181 6 247
723 -35.981638696081177 2.6169824941285125 79.244653867140784 3 0 3 0.57872546501408006 8 267 12 289 4 230 5 190 7 270 15 140
1832 13.957334512726822 13.12682540560594 121.01568360381015 159 143 120 0.59469015655164048 14 411 15 293 6 296 1 124
724 -7.0456272948902319 4.1555392658478869 10.372430032712908 36 65 36 0.46497354350575371 8 284 4 231 15 221 13 258 2 184
1833 54.472805823108096 -2.4625247039411722 70.690894874345474 66 54 39 0.43506701429661138 9 474 14 225 6 297
727 -5.7475684792970947 0.47807933651646956 11.244899766134397 0 1 2 0.41147555209774866 10 141 11 224 4 257 5 325 7 323 15 127 8 362 13 157 12 244 2 122
1836 -3.6899196564832364 2.6574705348111829 11.299240146982919 49 54 38 0.82353334532240408 14 345 6 363
728 -3.7295486391682648 0.37785538695117687 12.6021149472751 128 85 7 1.8199151483341292 11 142 4 259
1837 -3.3299757124495954 3.1354649038490785 11.140718127686418 19 32 22 0.097760059900172364 14 353 6 381
730 -3.5418750514342672 2.6309586518747592 12.976952976481661 37 43 39 0.051272327611362828 10 968 4 271
1839 52.127297900404862 -4.1215755826213716 101.73815982582674 11 0 0 0.58659406491913235 10 639 14 454 15 355 6 439
731 -73.173286666358592 7.6963445115807803 58.188039195881927 78 100 36 0.77072890507999825 8 428 4 277 5 307
1840 41.567979860830405 4.2299312971708094 73.855622930696299 176 178 175 0.40280197294917164 14 391 15 290 6 449
732 -0.70200702573592244 0.71713877842379103 15.010781791092503 179 180 182 0.10637457469773992 10 40 4 283
1841 36.677830563233343 4.033586178363656 79.098473701122614 22 23 18 0.50407613287134401 10 866 14 396 6 454
733 -6.1538683536306724 0.4470739495082432 10.977551712772225 0 1 0 0.25556757304831801 11 375 4 286 15 185 8 360 2 134 12 391
1842 33.335429276351967 6.8318739598316931 131.0562494573397 139 143 142 0.2859491916134031 15 428 6 456 1 280
734 -6.6612350830983882 0.44260096228911339 10.581393582693627 0 1 8 0.41300791563049738 10 261 11 351 4 289 2 126
735 -32.081047161210464 2.7791634484119943 78.906454440041344 210 153 31 0.60174161701163809 8 413 4 301 5 397 3 398 15 279
1844 51.100161060519518 14.797144019252457 58.934719585811294 112 86 69 0.69537605161632243 9 604 14 471 6 519
736 -28.324901970978818 5.1502759209751012 109.35681147201819 0 1 0 0.63082533503224936 12 665 4 303 11 440 5 393 3 404 15 206 14 218
1845 -2.0200413706493023 4.6912475794194002 6.0316177706423373 102 103 98 1.5565775447215093 9 387 6 539
738 -33.816629355345775 3.50861194817023 76.620295283491302 116 84 29 0.87564871433320435 8 666 4 305 5 643 7 578 3 578
1847 51.356743459236732 7.2760997683660822 67.58166585085786 35 37 34 0.39054559667011213 10 649 14 278 6 555
739 -0.61623683357785752 4.1002950061324217 12.914046384577142 35 48 39 0.71081910370685142 8 285 12 411 4 320 5 254 7 221 3 289 15 452 13 401 2 321 14 319 11 397 9 607 6 512
1848 57.656257094157795 0.622978211298574 73.005718452200313 44 35 25 0.45112064624015319 10 684 14 442 6 584
740 -3.3261171975247663 0.099479142029630915 12.88265310407183 4 0 0 1.1445007774346447 11 688 4 339
1849 49.925392949903099 -4.3395624072429539 82.246669989574372 147 147 145 0.24229071658887921 9 829 14 744 6 594
744 -51.688368240432553 -7.4504357196391311 112.04662001579345 98 85 69 0.31956767582160389 8 617 12 571 4 370 5 496 7 431 3 510
1853 54.962260413573937 -13.976911056524276 90.777440933833105 127 129 126 0.44291349718149925 9 682 10 732 14 590 6 643
745 -1.4386051818155516 -4.6347686354517101 117.44379780983263 27 1 0 0.47443988192831782 12 357 4 371 9 493 15 424 6 444 11 632 10 485
1854 53.174168950165203 -14.035833830815337 89.468161528996205 66 68 65 0.5480802827725586 9 887 10 900 14 591 6 644
746 -70.660236642075077 -6.5858417906193845 105.17680762980311 65 49 30 0.81541378860509739 8 651 4 373 5 493 7 319 3 523
1855 25.455803733699138 -16.023605600008015 115.05005154806486 64 80 89 2.6637200835051336 12 659 6 645
747 -55.755459756667776 -0.64906320512790128 117.59006482629408 52 49 44 1.3465021204694103 12 622 4 376 5 487 8 636 7 217 3 300 15 119
1856 -3.040013479221082 -0.28325368278652568 6.4142817412889359 155 157 148 0.18567106785957008 5 185 6 649
749 -37.500468916821255 1.8969485237748376 79.857185792240557 176 141 42 0.58658863404848927 12 433 4 381 5 400 7 337 3 299 8 295 15 276
1858 4.5032429467655222 4.5550322658545435 6.8619175128232923 102 103 98 1.1568855764694699 14 164 6 689
750 -4.7667902037824756 -0.0029801257818996294 12.062961753557087 66 32 0 0.0003754089302319057 11 61 4 405
1859 -11.867686281881205 12.691169875932058 115.53953110562843 64 41 29 0.24311942775481635 7 567 13 449 6 710
752 -44.855567074860048 -0.98342428699659568 124.95006462685069 3 2 0 0.32477544988443457 8 339 4 434 5 406
1861 46.110566291791628 2.3251226623837722 78.960730991467699 63 64 58 0.28898736291691685 14 696 15 586 6 746
753 -64.569419764050991 -3.7540968023664041 92.420605461499846 31 21 1 1.5707542065834841 8 716 4 436 7 207 5 236
754 -61.513235280194323 3.9884057422253338 96.225167531974023 79 78 74 1.0257324919480857 8 866 4 465 5 644 7 627 3 577
1863 -2.0358296038674735 4.9410419884571368 6.2250127940529651 118 120 116 0.74677415212294129 9 765 10 820 11 831 6 804
217 -6.0647651073371653 4.1765875663060683 10.873503346686938 34 65 33 0.09763607479504062 11 1176 10 1108
1326 -5.7615434286399312 1.6989622023086073 11.265846365985473 4 5 2 0.42790820974415572 12 1022 15 763 14 787 6 756
758 -3.5991338297143063 0.55685772352605689 6.1970253469123469 9 11 8 2.0092678543716307 12 949 4 538
759 -55.299665481092298 -7.11303982804914 109.5667627941659 68 69 64 0.86027721707336313 8 722 12 586 4 542 5 622 7 430 3 522 11 109
1868 -5.7871993362474505 -1.5997804602406349 10.294529816216867 95 95 93 0.42532731606769481 14 731 6 855
761 -5.7229955510634314 0.17920527919523987 11.152241649467616 49 50 35 1.7807362384264169 11 364 4 559
1870 -5.7135491534745286 -1.2912511359893957 10.174492288279239 66 56 46 1.2454575346951615 9 527 6 868
763 -64.763277186045485 0.18112440484177322 101.10751572965501 44 44 35 0.37562754482961574 8 635 4 586 5 650 7 590 3 530
1872 3.201934267556223 2.4917311346023689 8.8201388505603457 22 65 49 0.066606999017750523 10 1149 6 885
223 -1.7533860350852628 2.8679230268707081 6.1076731551050951 27 11 0 2.7055074718194962 11 4 12 5
1332 -6.9705003941913075 2.1504597372715364 10.380457162917684 38 51 27 2.2004352372092728 12 161 8 319 4 274 11 145 7 291 15 516 11 646 12 684 4 674 13 150 13 527 2 123 2 406 5 294
764 -7.0312897627039597 3.1994216464973224 10.519432610547204 106 128 85 1.5364641497581797 12 908 4 600 7 877
1873 -3.1544952520640894 4.1391502357560279 11.576965792962785 24 28 24 1.847850973235807 8 388 6 187 9 184 10 174 1 217
766 -2.3334471827484164 -0.49149499382971751 13.260815586130914 8 12 6 1.281083836529783 11 141 4 608
767 -43.709035130740226 8.4095197589278108 103.47191039484436 30 30 28 0.49873946856871937 8 982 4 611 5 583 3 648 12 895 15 536
1876 2.2467657409753641 3.0546683572873041 8.9723124598094781 36 103 90 1.0944534234456329 11 605 12 902 6 666 4 793 15 627 13 491 14 616 1 410 2 563
768 -7.0927210367660596 2.4600855779701831 10.329256664836389 15 31 6 0.20722518217200928 11 596 12 619 4 643 7 868 13 530 2 414
1877 5.0257967231593978 -1.9988404944083056 121.19210981890029 68 57 40 2.2166236387358307 4 438 10 453 15 357 14 223 15 201 9 298 6 202
229 -11.162168291816426 -32.244614020588138 120.05739595548282 1 1 1 0.37045588545507624 10 19 11 24 12 20 3 24 9 11
1338 -3.6242878827572502 3.8705684844707182 12.843536564325662 13 26 17 0.49843116606915194 11 135 15 312
770 -3.7833049904622609 2.3994007358443512 12.630857865226332 93 108 100 0.056162610302285254 11 215 4 671
1879 2.2028854111856897 2.2339342314024999 8.871855524977116 99 145 127 0.33822329554876052 11 349 10 362 12 356 9 312 6 312 4 323 15 301 13 251 2 186 1 236
771 -7.1521696164348381 0.52315844586332172 10.192330792791637 65 71 48 0.19646146932324096 8 1066 4 686 5 868 13 668 2 542
1880 3.9623145245541371 4.9766804038880927 8.9301021419179172 220 225 221 2.2544737351217066 13 1 6 6
773 -0.69780494504345947 0.44147499265955681 14.474034132262579 134 135 129 1.732502788498379 11 170 4 697
1882 0.43958076533985702 2.7364072189665425 13.902841294856847 171 159 137 1.4422588995667183 13 6 1 14
233 24.19160981802424 -23.868058043816497 116.18056708281973 219 221 218 0.64727555607712206 10 43 12 45 11 54 9 53
774 2.7869162347952683 -2.0008606648376044 17.543532064464991 91 88 79 1.6406701886887205 10 257 4 720
1883 5.4102191354618583 4.9010292433648717 19.634751895710401 25 22 13 2.0647448322956752 9 376 6 60
775 -60.069393675231517 3.1442880311420578 93.943926727543044 1 0 0 1.1473276821548635 8 992 4 738 5 853 3 714
1884 1.8191146581651705 3.5705902958274178 13.809223616611151 41 34 27 0.13944793097192243 14 172 6 172
776 -3.1537493032162485 6.8497360471509623 117.45024711409492 58 59 51 1.1823811569845895 12 1239 4 741 5 782 3 576
1885 1.2740683196598437 0.86932513293520952 13.417661566623684 1 3 1 0.86635293674037228 9 365 10 138 6 210 11 111
777 -71.759979859545012 5.4087073167689521 111.85332869412193 1 1 0 1.6788957205811375 8 1020 4 742 3 712
1886 2.2186011749483039 0.79789508225843642 8.9878076527557749 163 164 159 2.7974208002092835 5 206 6 323
983 -48.795777463456588 6.693632940914374 85.910950239083164 1 0 6 0.76674976768481129 4 145 5 128 7 280 3 274
1525 1.2539700654557482 0.74767048695442329 13.489735432913315 166 167 171 0.61297479473968164 13 108 2 96 1 116
416 -6.9634038585638267 3.3914937398217821 10.467310661214691 82 119 51 0.20010924641328415 11 597 12 670 8 795 4 621 5 717 7 754 15 484 13 408 2 329
984 -0.67596899585444592 2.4542788733698422 14.617528967082126 33 124 115 1.0866351319540346 10 978 7 284
985 -40.537640708133914 2.9178867390847549 78.707808042817845 0 3 0 0.26855183439664104 4 208 5 395 7 297
1528 -4.2602093139219885 3.5975049691271614 12.22342151709276 198 200 197 2.1556294891226639 12 66 2 111 1 74
419 -7.0713391910532648 3.8946333128085309 10.25181876306682 62 94 52 0.39039734957683203 11 630 12 682 8 627
987 -38.444715260370813 2.475227467257334 79.151573653487105 2 3 0 0.2397881169296939 4 278 5 399 7 300
988 -49.765139239780126 5.0767889377228279 83.803473599472852 89 59 16 1.0263086893082756 4 307 7 303 3 486 8 663
1532 2.4852300522742476 0.92021919633136184 13.048120200760488 3 5 4 0.33241759679608646 13 180 2 127 1 164
991 -7.1905608734482973 0.9300422554391391 10.201982940743978 2 2 0 0.52110521934264065 8 366 7 331 13 155 2 129
992 -61.18634278669456 -0.5628426084226279 106.38498022743161 74 75 72 0.507551416897708 4 387 5 403 7 332 3 506
993 -58.183500676645728 0.80489233443361907 104.96695326457122 58 50 45 0.31907358424128918 4 142 5 187 7 335 3 501
994 -50.866521221037246 1.0155827581632093 87.836812753675034 7 1 0 1.0420945587253245 4 382 5 401 7 336
995 3.17143600576994 3.5496292104292277 9.0983816165005678 14 118 109 1.3971643508493796 4 488 5 682 7 352
996 -18.412148219459137 3.6288071407206108 121.27829342180834 125 122 110 1.4734362103649983 4 384 7 362 3 489 12 277 11 208
999 -82.070732201637568 -40.848561145331395 120.32744641987495 63 64 59 0.14013279641404452 8 478 12 477 7 393
1000 -58.375047754075659 -26.09971505712166 123.4762192374298 26 28 25 0.34519119761986422 8 502 12 573 7 402 3 455 11 712
1001 -63.089934216733802 -32.309841998911814 115.09508860523063 18 15 9 0.42382504434091894 8 471 12 368 7 407 3 459
1002 -57.59993129877747 -25.475314927601268 116.95361078747564 30 31 26 0.6698829033091519 8 505 12 572 7 417 3 456 11 505
1003 -75.106901003207057 -27.930726770011812 116.34408885329397 33 34 28 0.38066879099220335 8 408 12 262 7 419 3 457
1004 -33.379001171931549 -23.199361012846605 121.21869666444304 127 122 114 0.32319054728414948 8 354 12 387 7 420 11 373 3 453
1005 -3.0989288314942067 -2.3094880163049165 12.94521163563587 84 84 82 0.57315423356480988 10 1081 7 424
1006 -0.35535909537294769 1.639262538180049 14.890293420254601 1 1 1 1.6176179597470417 10 348 7 426
1007 1.3607757513711223 0.26555123684659121 13.566678371954065 208 210 209 2.2742096737295752 4 120 7 435
1008 -78.138851948690643 -9.9096305117087748 89.811372696736598 47 48 43 0.99542735035440588 4 446 5 472 7 437 3 520 12 556
1009 1.9373824198263765 0.11197027497637121 13.462223704822264 177 180 185 1.1133305700735641 4 404 7 439 15 296 13 177 2 135 14 400 5 649 6 593 1 115
1010 0.083651659693691385 1.6020193270465144 15.167430994068177 31 31 29 1.9384066111115343 10 347 7 442
1011 -45.148925962757325 1.937429375083503 78.238247601999149 132 106 47 0.1068858596094826 4 429 5 441 7 444
1012 -81.582714200083458 -0.66362976962558606 92.909890727451852 96 98 97 0.059431327379796076 12 617 7 450
1013 -58.193129110693654 -33.676349663530274 116.46591202699665 96 52 7 0.88115693320252186 11 474 12 497 7 465
1015 -94.93194647886547 -42.504346102822325 123.42676240342335 42 43 38 0.35957390294200797 8 774 12 702 7 468
1016 -79.583835934382407 -39.749402077830354 113.79591510943835 11 11 13 0.25661302123566881 8 732 12 531 7 475
1017 -86.118078087963625 -43.714545235825099 114.6338974176233 49 48 46 0.78057949519864389 8 535 12 518 7 480 3 546
1018 1.9799251767469506 -0.10045082243277605 13.478427972002823 171 173 172 0.98329712648242573 5 618 8 506 7 482
1019 2.1981574586387471 -0.097578626747525224 13.397485992343432 134 136 135 0.64567646850286042 5 488 7 483 14 441
1020 -75.649233620541807 -17.566844523694215 122.44601518733485 61 62 57 1.1385199910737402 5 470 8 488 7 485 3 518 12 339
1021 -85.109598273262293 -27.573980220639893 117.14933607221359 0 0 0 0.45807959414935989 5 476 12 493 7 490
737 -45.133062343238137 5.6890865786578733 112.52540286273799 142 141 135 0.75952650127547094 8 417 4 304 5 375 3 403 12 602
1846 -1.4415753232163371 13.272413179884596 124.72470742989178 37 38 32 0.67733073383393816 14 414 15 292 6 554
1278 -2.9349929274133228 2.9575030747958424 11.330247853641886 0 11 2 0.3606076207603619 4 471 15 463 13 356 5 329 2 281 14 462 6 522 9 400 1 323
1022 -73.973182972520206 -26.779377954094812 117.80054424943467 5 5 3 0.25172609468134644 12 566 7 492
1023 -39.994767309979146 -22.826903144370391 118.67200117777729 101 94 88 0.20986886908550009 8 501 12 579 7 493
1025 -3.3787200555389454 -2.2014726826419095 12.563949294377309 50 50 48 0.64541831416453821 10 647 7 498
1026 3.3838619261739029 2.9682862916780564 9.0591643279927077 8 100 90 0.3126325628062816 12 1075 7 504
1027 -0.39997995787005924 1.8053090541081716 14.85949393820316 133 133 131 2.1098337522992257 10 480 7 531
1028 2.84821927552608 3.4484591212497513 8.7956205247820769 9 105 102 0.19573802789812259 5 379 7 537
1029 2.5848053426213893 3.1600445098648375 8.7358814787957364 48 111 75 1.2370850348615428 5 362 7 540
1030 -1.7896366471663847 4.9003967031901485 6.3234149786934228 156 157 152 0.3334992561596995 5 381 7 542 1 321
1031 -54.25139894572137 7.6306371047156443 78.697160086077503 170 124 30 0.82820967768868969 4 313 5 298 7 552 3 417 8 427
1032 -65.250224329750978 5.8961759202845734 77.022507373675992 31 35 34 0.3597587974617415 4 454 5 460 7 554 3 583
1289 2.5458917191303163 1.5606891763911535 9.9356940256660859 95 201 199 2.0360899576848035 5 555 15 530 14 522
1033 -63.476786606665634 5.0128239688891911 74.052098152483907 112 114 113 0.43671822065190452 4 455 7 559 3 487
1036 -63.855060555176166 6.5734326977398432 76.100535954201064 112 118 116 0.18944302644949593 4 545 5 579 7 606
779 -7.2748009592366811 0.82673938813583381 10.107052512794429 0 3 0 0.61391574648433678 8 1022 4 758 7 900 2 516
1888 38.103064679015873 -24.78406437591827 103.27993959651947 60 62 61 2.7753826233512164 9 455 11 561 6 389
1037 -2.9182515633294979 2.1576694276324755 11.457035586098062 93 99 94 0.21203886456557447 4 676 7 613 15 661 1 422
1038 2.6715691805998629 1.675071928138633 8.3976336652348724 83 226 218 1.7701576138622712 5 558 7 617 3 204
781 -2.6209659210047267 4.8524014313905868 6.1582540395079368 95 98 88 0.83239944987938141 12 423 4 781
1890 -25.76784084161665 16.063229628685715 99.853944801250847 145 130 107 0.99399999126646765 13 7 15 16 1 8
1039 -42.130940992941049 3.494520846235492 79.478712332430234 43 40 36 1.0840835329998217 4 606 7 628 3 600 8 674
1040 -84.186509475979321 -36.732731230866612 110.34123279680355 9 10 5 0.14640754674948553 12 808 7 629
783 3.2277612859921745 2.4306161585790336 8.8474943018302881 42 77 42 0.46667368642803464 8 1103 4 796 5 788 7 936
1892 2.4240569900058877 9.765265743323619 104.0905621781619 28 29 23 1.1448501058454348 15 14 1 11 14 15
1041 -33.634877470935038 -30.555506340712078 147.89065713994333 51 52 47 0.082796817862725192 11 708 7 634
243 18.051104325776617 -34.226039517893156 109.75874987113362 220 222 219 0.24922394424061758 10 106 11 153 12 83 9 145
1352 3.7930846580219781 3.3998841537512723 9.3016072873567808 210 207 206 0.20849838865625919 2 14 1 17
784 -6.7456316012466555 0.52079068553764818 10.555668922277416 73 71 53 0.83146502628417385 8 1067 10 959 12 935 4 811 5 867 15 697 11 980 13 574 7 321 2 548
1893 0.79302197263367968 -1.7352006237214972 8.216123683725808 0 0 0 2.2707981490369185 5 414 1 16
1042 -68.686129956893978 -28.373879174585301 98.290902566556312 28 28 26 0.67080368668865187 8 567 12 367 7 636
244 -9.1702016846923158 -40.789751146129952 120.66322889418974 98 99 94 0.40481783423630857 10 73 11 80 12 84 3 91 8 75
1353 1.6643890210231724 4.2203507223997656 12.922120306060254 12 12 10 2.0683425666670789 15 22 13 21 2 17 14 27 1 25
785 -4.4368073075182917 0.14437589504126283 12.099819294407951 138 90 17 0.56491331347098339 10 505 4 845
1894 1.7518506563388261 3.4808392556079837 10.003096316055251 197 199 196 2.5799394276622065 15 23 1 18
1043 -34.724574273478005 -29.413674038717705 117.77220606436016 77 69 59 0.4370195815638182 11 998 12 995 7 640
245 -0.018073851346253934 -38.577113997619755 115.78980801849397 88 89 81 0.8653522164618902 10 72 11 79 12 85 3 95 9 79
1354 -5.1489660574812675 1.8062812557083416 11.529496082118841 224 226 221 0.10969067501456775 12 35 13 31
786 3.0187152314140131 3.4094827433946411 8.8497554544021249 40 90 87 0.63676769290633906 8 1078 12 823 4 858 7 716
1895 15.727383343229846 9.1945761842659586 96.792072808850975 80 81 75 0.95746705687823974 15 30 1 20
1044 3.4537288291782868 2.747605587225141 9.1126074115177875 0 45 29 0.18397138219374368 5 688 7 689
1045 -7.1775781121815836 8.2101016062904417 9.8294914490918632 113 113 103 1.4611773434609849 5 877 7 701
1046 3.300381670489076 3.3872916332055856 8.9828260215236799 16 101 98 1.2476278663765676 5 810 8 822 7 715
248 1.8063993537656495 4.1194681446386605 8.5163067623060442 203 205 202 0.062046402102932358 11 621 12 97
789 -6.4519658881478961 1.7338907006371749 10.776059906843034 39 40 34 0.76333561272841954 10 1129 11 1031 12 1024 4 877 13 739 2 557
1898 2.6996766328615207 2.1143390940435913 11.772376164790018 229 233 227 1.8031131334393447 2 40 1 63
1048 -3.333727631326548 2.9127477359872573 12.936354732163856 32 55 42 2.1454548049106159 10 90 7 731 13 513 2 405
250 -6.6735129239628499 3.7151481438297806 10.651709708729348 13 19 13 0.33787879296527712 11 93 12 104 8 122 4 100 10 86 5 104 7 120 3 105 15 80 13 94
1359 -2.3012821165630633 3.6283795630495939 11.540231662231855 203 204 201 1.4125843017297399 15 57 13 44 2 41
791 2.9974108292499415 4.5569493443500821 8.9209404683399836 127 144 134 1.2781770660374538 4 866 5 734 1 454
1900 2.2608677918043933 4.4084288133349814 11.369251459475255 50 124 115 1.78179306695439 2 306 1 81
1049 -40.946393242425231 9.1092667895065631 74.380917714306946 105 79 17 0.44491703961863333 4 401 5 606 7 737 13 279 1 195
792 -6.5802085371231733 5.1430841988691229 8.2999329006481695 206 208 205 1.4924673500458248 4 0 5 1 7 2
1901 -2.3484138612458763 3.1698596080562904 11.702771609985438 20 31 25 0.39950148286208398 2 109 14 134 15 152 1 109
1084 -42.368325117792459 4.4162513171809978 83.617086425016566 2 0 1 0.82514542067163199 4 46 5 46 7 84 3 61
827 -3.6756514334141701 1.9193268667757879 13.420689013965807 130 91 28 2.0563763555594123 11 652 5 172
1936 -2.8555016237137552 2.3951144188959028 11.605120612613392 102 109 103 0.44448477981315265 13 375 2 337 1 339 4 529 15 522
1085 -32.870988929007417 4.9379305470036101 116.39175551509405 1 1 3 1.3038402448244604 4 41 5 38 12 976 3 62 15 37 14 34
1087 -42.860214887081462 -36.900370944021972 112.07484242794949 119 119 117 0.21215805030574758 12 73 3 73
1088 6.9553661100849409 -19.50380487902131 121.68389422736344 67 61 47 0.36486020670891012 11 67 3 79 9 54 6 49
1090 -57.584868882059432 -34.824013849859639 114.58254837557526 10 6 0 0.33188861881958615 7 73 8 80 11 78 12 75 3 84
833 -64.063684103530036 -9.7041844259793457 106.82594996642041 63 49 40 0.6253342733447903 8 236 5 225 7 195 3 310 4 212
1942 3.0385704398419686 3.4494159423893263 8.8505328543788533 4 66 57 1.27348819741146 5 263 7 264 1 453 4 635 6 795
1091 -63.226895870553378 -35.341130973749046 115.68809460891876 27 28 17 0.21494662541197557 8 81 11 48 12 50 3 85
834 -60.88978149091858 -6.1523713088074716 95.993442640741463 69 53 40 0.43642317207826503 8 299 5 232 7 200
1943 2.9765257764094502 3.270789781173566 8.8327589145033087 69 118 59 0.4174877044447608 13 498 2 365 1 319 12 401 8 238 5 360 4 334 7 348
1634 53.027765003332391 12.737118512521249 63.62437366855481 4 1 0 0.86432959259024023 10 1026 14 294 9 747
525 -1.4796968433150515 1.0077571591448276 116.07853953072573 20 21 15 0.48281425256937294 10 1144 12 1201 4 735 5 776 15 736 14 749 9 830 6 749
1093 -52.971025611905979 -46.523723966795878 117.7150188106681 115 116 111 0.89709567471748153 8 76 12 88 3 92
1094 -12.657367348524748 -46.564716394407817 126.16316307115946 177 178 173 0.89957732605800644 8 72 11 82 12 86 3 97
837 3.1185883758998849 1.8313840059633701 8.7074387102247517 2 53 50 0.88400740147000978 4 241 5 246 7 185
1946 -0.74184710960776457 2.1713111918248305 12.885029362517679 81 91 83 0.49238968370730357 10 714 9 804 6 707 4 669 15 641 13 442 2 359 1 501 5 823 12 882 14 666
1095 -37.591960882576601 -24.939704951728896 117.08312504768153 151 150 148 0.2190756867759176 7 68 8 83 12 124 3 101
1096 -28.989126103883422 12.458675145609124 95.449580984754292 0 2 1 1.0925343901366602 4 74 7 581 3 116 15 62 13 55 1 46
839 -1.3655257588834175 3.4489857562534705 12.75996651332394 31 50 41 0.83747958939784228 4 236 5 250 3 248 15 341 13 262 2 194 14 348 6 377 9 270 1 160
1948 -0.13707358108168977 3.2613672216972809 12.888964446144536 40 54 45 1.2859674727165979 4 623 5 792 2 196 4 235 15 217 13 201 1 162 9 265 6 170
1097 -49.382983702079947 8.818335697608207 96.163730781539741 0 2 0 1.6113207272173109 4 72 5 72 8 196 3 119
1381 -2.3731478619400299 2.9757884027177242 12.109549419306518 214 215 213 0.51973238039545433 4 176 13 139 2 115 14 255
840 -2.4207406987431823 3.4856668463752123 11.672868338979629 205 210 206 1.1927762946210636 4 101 5 251 3 272 15 151 13 132 2 124 14 128 6 123 1 112
1949 -3.6284982179898253 4.2238726676105118 11.656546719858932 225 221 218 1.7978825730031565 13 93 1 76 11 400 10 644 8 286 14 249 9 182 6 342
1098 1.962699715307102 6.8893469450462916 120.59881421626871 1 1 1 0.53459297628947966 4 59 3 120 15 112 14 96 9 132 6 95
841 -3.6243716403567316 3.5422718517902685 11.380425447886994 34 43 38 2.2883509615970614 4 239 5 252 3 273 6 218
1950 3.1877256727925749 2.2328031360864511 8.7923808041851554 62 100 83 1.0365961139347299 15 610 13 636 1 402 2 391 3 291 12 657 8 325 5 507 4 499 7 403
1089 -36.938398664111361 -27.884855042890525 134.13433866336428 153 155 152 0.3324963806764421 7 48 8 69 12 79 3 80
832 -40.223473986089338 -9.2270447735588093 129.84829440346354 117 119 116 0.36449656210207193 8 297 12 351 5 224
1941 3.0856124311547246 3.2182131006760533 8.8637743291019344 37 75 27 0.31939788509152983 13 496 2 471 1 417 4 492 5 361 7 347
675 -32.836255791253201 -31.5723689859079 119.41259654537711 21 22 17 0.42493971844630657 11 571 12 656 8 606 7 525 3 550 10 521
1784 46.612661816142911 -31.89008515735312 110.14080472023109 166 167 162 0.67028878659251812 10 783 11 962 9 743
1216 3.5652125662220819 4.5801049320851517 9.4331557808218456 200 207 202 1.0873508279375808 4 42 15 86 13 35 2 45 14 124 1 40
959 -92.348728090357085 -38.936624378253825 118.64658280466277 20 21 16 0.45935254856640928 8 168 12 145 7 159 3 229
1099 -16.698222776719827 -19.016288473421259 131.63261605712728 142 143 134 0.92939432462347171 11 116 12 121 3 129 6 98
1383 -36.902383829857463 14.474297101445467 76.982704511957692 2 0 3 0.21799882973512641 4 264 13 149 2 98 1 133
842 -3.1331104601461131 4.5436691917001522 11.009890334892729 197 193 193 1.091416033856889 4 123 5 261 7 262 15 77 13 95 2 57 14 129 1 80
1951 -4.6202211017904462 2.3994669949175531 11.640163001442936 213 215 210 2.5810353592418176 13 3 1 2
1521 1.2704280764319469 5.0060111845108999 13.450552915926368 177 179 176 1.613722573569099 4 57 2 85 1 79
412 -2.5546316200080588 -4.7654314366148354 113.15158602098107 139 110 106 1.2869940534223769 10 481 12 655 14 421 4 440 5 498
980 -1.320564745187377 4.2754143463517869 13.087885317323774 189 187 182 1.6376349679373357 5 256 7 260 3 173 9 237
1648 14.783104227248248 -4.851895211516168 130.06666705258721 182 187 179 0.991026932056292 11 858 14 423 9 490 6 435 15 717
539 0.45243721479472998 4.6055075962393373 13.108642914575421 165 167 164 1.3953705426880687 12 96 4 54 5 103 15 82 13 69 2 55 14 88 1 60
1107 -65.049362843793574 -34.270674039092768 124.79687283702489 153 101 35 0.33360218892029986 7 106 8 111 12 129 3 148
850 -0.83874769526873383 2.948340819517171 12.777435482289983 2 13 9 0.39033714724773044 4 341 5 331 15 509 13 377 10 573 2 303 14 466 9 449 6 364 1 346
1523 -0.56092392710392247 2.2383608632731056 13.130311590765201 30 39 34 0.29768839662544999 13 147 15 245 2 88 1 106
982 -5.5433697955040904 1.5326893263478274 11.402358592882065 1 2 2 0.46174389197503118 10 140 7 273
1109 -38.390051756170799 11.385232994320113 77.42917725536941 0 0 8 0.29124042963561109 4 88 5 119 3 158 13 81 1 64
311 -6.3323544764302504 1.480768104833875 10.834166113466489 1 0 0 0.71827830507052215 10 225 11 242 12 349 8 379 4 352 5 357 15 326 2 211 13 223
1420 -49.640531735951619 8.2429831840107735 76.399443998919509 47 18 0 0.10620947737945785 5 446 13 300 7 547
852 -6.6012018745449383 2.0457287101701063 10.661404829307939 40 46 42 0.45558050154847474 8 324 10 229 5 348 15 234 2 205
1050 -18.461510475580344 10.661124852037789 113.1928806920785 41 29 15 0.21310288024141677 4 450 7 740 15 383 14 544 1 279
793 -6.7671714191429286 -0.54684867067800058 10.610603105289833 135 137 134 0.73199781094354199 10 38 5 3
1086 -1.4253138450024829 3.8777724240650659 118.88208642958074 176 166 144 1.1362193636418083 4 45 10 89 12 68 3 63 15 48 14 57 9 58 6 53
829 -2.7295653235708386 1.3569198808695089 13.611328211539879 215 158 43 3.210879525619152 10 154 5 208
1938 2.9823696624360116 2.3747968317123176 8.7253959175537883 48 93 42 0.43369517991605822 13 414 2 393 1 311 4 329 5 415 7 376 12 360 8 317
1035 -23.101831924926103 -14.937111772134354 50.915380799270991 62 54 19 1.5243130490105137 8 777 7 575
237 28.984397782443221 -24.861103155794233 116.40391393330982 20 31 35 0.60278140811139858 10 58 12 53 9 72
1346 2.7966820262035692 4.3966427943274562 9.7714894661905323 14 97 82 0.98169681333196512 15 8 13 2 2 0 14 9 1 3
778 -0.91152370017883089 7.3389841123012998 117.46019832801061 58 59 54 0.45983551449701254 12 1066 4 743 5 766 15 840 14 700 9 931 6 737 1 491
1887 2.0126405348811196 5.8431952442775934 7.0041103427099802 45 47 44 3.0181288150793728 11 410 6 351
1053 2.9909082769287969 3.3165936461309364 8.8430754122129365 70 109 71 0.084952053806920572 8 1074 7 851
1054 -0.64017108132645428 2.8704616035697867 14.72521798963475 30 102 80 1.6372334544557554 10 202 7 870
797 1.1801311059368769 4.6387076789927653 8.5653564445087209 167 169 166 1.4815178125466437 4 23 5 15 7 26 13 16 2 11 14 46 1 13
1906 -0.61481768097570832 2.8506543767057018 12.616595926553963 15 24 19 1.4505843610849809 2 199 3 109 1 172
1515 5.1000746654582212 -0.56619356525754705 13.32111242215826 162 139 121 0.29132083383046314 15 1 2 35
406 -3.2320125323534818 2.5402026047574955 11.179205580696969 79 99 90 0.33887140327328807 10 838 12 625 8 654
974 -82.7512236166516 -28.838325877250888 115.60517602936281 77 75 68 0.43874396948537142 8 211 12 176 7 236 3 333
690 -0.75612125794139562 -0.40621507161276438 9.5047061942408018 1 1 1 0.0024160451400107533 8 66 4 28
1799 -5.919969059986836 0.0063444124991867811 9.9431644317909456 84 78 68 2.8996996801973292 10 1178 9 978
1231 -20.313649720907467 7.6224463880860505 116.47514865492889 40 22 8 0.36715950558581434 4 186 15 166 14 192
1642 57.430915397910496 -6.0887562370733557 72.235304945214281 100 72 69 0.30132683394522342 10 423 14 386 9 506 6 414
533 -26.368930346929218 -36.887301435790874 115.38385914532228 48 53 52 0.77451070620368279 10 931 12 1126 8 1051
1101 5.9504343540518532 -12.235474644532866 127.83543440336949 160 161 160 0.7410236197542277 10 150 11 167 3 135 9 112 6 99
844 -4.0893049417069678 5.7832482676705688 5.8755592247425508 29 30 32 1.6423548738355567 12 838 5 266 7 164
1024 -95.756985767042863 -34.995568781200781 124.34273425146921 56 57 52 0.50969415398211371 8 561 12 503 7 496
973 -45.492148118832041 -24.963878280300829 120.84597340457991 2 2 0 0.31207462345990539 8 214 12 238 7 235
1100 7.8526178425883408 -15.011605751299225 122.17242067629047 104 104 92 0.11914261920913255 11 112 3 132
1108 -10.242194118349031 9.9675895998979076 65.735381820794871 92 213 212 1.1967277096597306 7 517 3 151
310 -6.9643639516154909 1.3221960289305001 10.405784926914624 3 0 2 0.28000982111836908 11 238 12 343 4 364 13 224 2 212
1419 -51.252238051018743 8.2409716209524948 76.319071660634961 52 23 0 0.075870858876175659 5 447 13 296
