# 3D point list with one line of data per point:
#   POINT3D_ID, X, Y, Z, R, G, B, ERROR, TRACK[] as (IMAGE_ID, POINT2D_IDX)
# Number of points: 411, mean track length: 4.5319314641744546
2430 -6.0922510249934687 9.2210011363298907 84.470456853088862 160 160 155 0.19708527003245679 7 418 8 513 13 605
2427 -7.7488586814167002 -9.1196535034979807 131.18490271966391 157 159 156 1.6075945745215963 8 486 9 763 14 698 13 536
1006 -27.699069889915528 -23.436035602602303 183.90453588405438 91 92 84 1.2393206880781504 9 786 12 1203 6 674 13 887
2424 30.893286338202923 -0.64703975312867279 94.427048839748792 27 53 92 1.0163890496197412 7 433 9 713 13 495
1930 -6.4436528801613191 3.3821239665916645 18.703228712051079 0 0 0 3.0725994560973753 10 819 15 356
1013 -10.712113125132129 14.317463609469399 19.562620558392577 69 71 68 2.1263928469048095 12 692 6 733
2431 -6.337225313116102 7.9084849141945224 83.533457695262541 22 20 22 0.35729401340717998 7 297 8 506 13 613
2266 -3.2247603881187117 0.10922940903901257 10.639789915845025 0 0 0 1.4243323703075323 2 172 7 79
306 -8.3758406175301126 4.9366390040207744 10.641067605924077 60 85 55 1.5468684922352038 14 1199 12 417 14 615 10 589 9 1230 4 523
1015 -5.9305975636277113 3.9927707812245741 15.182198179804907 114 127 120 1.0912860508277349 5 366 6 750
2433 -3.7331700015193197 10.125338470000182 122.07943171566305 133 113 112 0.30957321328825199 7 424 8 540 13 617
1050 -8.5819510399687502 5.1719326119961089 9.2178530509291789 253 255 250 1.6692005897428883 10 60 11 18 1 55 5 13 2 10 4 13
1759 0.097101849372296808 2.2774839674591218 15.030171925508073 1 1 1 0.38028103420221893 4 259 2 231 3 234
1766 -2.2008438399190089 4.5835796259577046 14.728230189730187 229 235 231 1.6522272075135629 4 292 2 258 3 203 5 116 8 129
1016 -7.6331963145904949 3.7851193058304551 12.917268933701122 62 119 80 1.6703103636186316 12 942 6 751 10 925 11 713 5 739 14 919 2 666 3 407 6 539
2434 -0.40386229510265881 2.0944253915426345 14.572199450245094 2 4 6 0.61531395989659354 8 463 9 471 13 618
1423 0.054947163417379666 1.8874150023390175 2.8168397739734452 91 91 89 0.61769722301385599 10 265 11 911
2276 1.1605568092635459 15.192295972308353 22.31989870580141 34 34 32 1.4965468618319826 7 120 8 126
1086 -1.0435020639877519 5.3447254289131818 15.690046006297717 215 217 213 1.5581305570835928 5 92 10 264 11 116 2 47 3 70
1795 -7.3743217772108194 2.0043704939307423 12.219724611475849 56 63 65 0.25079724390276692 14 142 2 455
2469 -8.2252541504628862 8.0196453438095201 9.5499273394648796 40 40 37 2.4635785050365091 15 298 11 364 12 201
2129 -0.24218703014084872 3.4980232211959299 20.292260342729453 123 125 120 2.8586949650805078 15 231 7 328
1048 -12.779893892256329 12.61441905331853 18.844105386662623 0 0 0 1.8274614069423563 6 99 12 98
1757 -8.1752385364001725 2.6968890863376749 11.307029237608219 5 7 12 0.42773237137882314 15 367 2 220 3 233 7 319
2466 -5.1213973367805012 3.9570927771434818 13.88145481455105 31 40 34 0.67319029158380772 2 104 3 136 15 204 10 292 4 144 5 282
1455 -20.202897210777849 9.2680636322829173 12.395367056474388 66 71 67 2.1720412337616208 10 93 11 9 1 114
1045 -4.5038642754729352 5.2289175243785753 14.004806999290219 65 18 15 1.3399305534537174 5 33 6 63 12 61 10 38 11 28 1 50 4 46 2 39 3 34 7 26 8 29 13 38
2463 -18.99606682594592 12.010197975428081 118.03380575683876 15 0 0 1.1365263724535204 14 299 12 327 9 293 8 201 5 151 7 225
1452 -12.956438717038814 6.7165670476386561 22.556056044353024 133 93 13 1.5036961233441466 11 44 1 97
2384 -13.434972485943613 0.95826366826490372 132.02257293620673 106 106 96 0.68905984887721905 9 105 14 116 13 113 8 105
1046 -2.7011188790788792 5.2124419667096609 14.666743427092875 67 19 23 1.2389088762240719 6 64 12 62 10 39 11 39 5 35 4 55 9 61 2 50 3 39 7 27 1 49 8 30 13 39
1755 -4.4516676442611578 5.1481517831497792 16.3233930460847 253 255 254 1.9062493795529738 4 215 14 394 2 209
2464 -4.3949962841673402 4.842928247117392 10.302598191520371 17 79 72 2.1638399166602786 12 65 8 77 13 108 9 180 14 94
1790 -5.4293802404999632 3.9493473775821126 15.174726715562789 231 236 232 1.2079697122267139 4 469 12 1042 2 423
2331 28.403484006502776 2.146154767214258 91.670544726969666 198 197 197 1.6505919992473097 14 321 8 528 13 306 7 430
2366 -6.6263560791323597 3.0224378396742613 12.043339572272263 0 0 0 0.51470121374501665 3 174 15 1053
1657 -1.6419085479410891 4.4251492346402719 20.522082152342673 23 25 23 0.25117879754787747 9 467 4 822
1946 -6.1766253972114615 1.1454934383973692 15.304081808199863 5 0 0 1.9860300949762089 12 818 3 312
320 -9.1813525811803451 3.0666674431842273 10.147314336936896 122 122 113 0.83434331539072704 14 891 15 992 12 1062 2 553 4 606
2447 0.15510289262634738 4.6010078999262722 14.33427413149917 40 40 32 0.27421686339783286 9 807 14 1079 13 992
1808 -0.12431535343775281 3.7066453828865589 14.302985192005021 108 99 89 0.32659688640512607 5 768 2 532 3 603
1099 0.223165153589859 1.3115813862477281 15.322174860595046 224 225 229 0.8614513876607367 6 357 10 365 1 244
2350 41.604880790157928 15.595165431407517 66.273371490809268 76 66 49 0.96693795403795291 7 711 9 846 8 751 13 751
967 -7.5502342939290452 4.1235165253811141 13.217738089215343 13 149 140 1.6145305774187042 5 337 12 346 14 595 6 406 4 288 7 507
1676 -4.25804717790857 4.2663088136382399 16.040352556957476 255 254 255 2.3397335470028899 14 599 4 24 3 24
1781 -2.1356260195887566 4.2287562386679118 14.530327127378087 58 71 64 0.67773955097209837 4 433 2 372 3 270 7 279 5 346 8 257
1444 -0.14237715749665034 6.2436505219902285 21.828468910353632 234 236 233 2.5454567974162452 11 30 1 31
1107 -3.957556952544055 4.34650914826305 17.33565173621594 78 99 91 0.15268563975670191 9 465 10 410
1031 -8.9977999161640163 4.6324008221951871 10.135878095408771 61 79 56 2.3649049646306386 5 781 6 288 12 229 14 1081 2 510 15 874 15 1111
2449 0.58153527024829399 5.1455557809368582 14.814756263162705 104 104 102 0.9259666008585784 7 741 8 906 13 996
1810 -2.4764697879423787 3.8996075288369503 15.297467651267024 56 66 62 0.46356623442033462 4 463 2 542 3 585 5 911
1101 -6.976068975024118 4.8707447696513251 13.814143782148923 62 152 139 0.29240144342336111 10 382 11 347
2369 2.9383565622868946 5.5900325450842798 10.898433987024182 128 129 121 0.45355704378295947 7 671 8 948
2472 -5.0599330769433939 4.5203072717420367 13.63991617707538 56 74 65 1.2095066464207658 5 350 11 346 4 429 2 382 3 297 8 396 15 452 7 388
1764 -9.7987438438999153 5.5364785357424804 10.531431379383257 248 247 245 0.046677156921139787 4 268 2 248
2098 -7.3562966491457722 4.7129825809375818 12.190769762283015 38 112 98 1.2678640007308317 12 856 7 170
1424 -11.098736132234018 13.119294224668137 12.171582180281419 122 63 59 0.93452767683850102 5 828 11 914
1801 -10.194114171876187 4.2373494586968388 10.894409107273178 87 87 85 0.9093063333726159 4 211 2 485
840 -59.2562895186269 -21.314386467634346 153.29220572462165 39 35 37 0.52856139754701625 14 1165 9 1171 6 837
2258 -5.8331668278463411 5.5724996949902099 13.822339009377286 82 142 132 1.5525306454143977 5 372 11 484 9 913 4 210 2 182 3 197
1794 0.61614930817887503 2.1916114497255292 15.047268863237006 4 4 4 0.34825696695493552 4 457 2 452 3 480
1044 -7.7156130415424782 4.9635200349212214 11.421476866284117 0 0 0 1.2477008782251184 9 15 14 27 10 36 1 23
2462 -7.1474407937547157 5.020044106529161 13.421321202820561 14 148 142 2.1025526002542305 4 539 11 634 3 556 12 848 6 719 10 700 4 408 5 504 2 384 3 263 3 696
2124 -53.724778163643165 25.027741712661655 130.53428964563113 29 25 22 0.057815642221041547 11 443 7 298
1040 -7.8865238179101036 0.42935034605160771 11.663822803128937 49 51 48 1.3750826932321767 15 733 6 695
1749 -7.565453488421543 3.9420609867970717 13.311561370848153 45 133 114 0.43192435913408533 5 279 2 163 3 217
2458 -2.509691826408047 5.7802554882529273 9.4585829460308037 78 79 73 0.36426498257534812 8 176 13 269
255 -7.2403997623113519 4.2533008604220006 13.427626661290519 105 161 127 1.6087432269892361 5 524 14 605 12 631 9 897 6 412 10 527 13 813 1 137 10 97
1748 -4.0755437598854671 3.8144004736235311 14.243680698683479 57 73 67 1.2564093110421817 2 162 3 148 8 584
2382 31.055372689016025 3.6099341725837477 71.731891862780515 212 214 211 0.60462351310354501 7 46 8 63 13 80
2379 -11.137879767197971 13.319622324520179 19.939393156623236 72 74 76 1.5955807329365488 10 392 8 761 1 297 14 663 12 687 9 823 6 391
173 -8.6760457660193673 2.7562013566315775 10.556764027960108 95 95 93 0.73322479729987722 14 966 5 888 15 1011 12 1053 9 1071 6 816 11 947 4 628 2 663
2300 3.5009579777234507 5.4122482440246928 11.275083872557502 119 121 113 1.0506956435153234 7 161 8 260
2262 27.285795074340204 3.5797866123960302 93.298815830376341 147 149 146 1.894420116172455 7 15 9 24 8 37
1251 -2.539305353475962 3.2425740639908334 18.208070966896852 61 62 57 1.5396804501030159 9 620 11 198
2457 11.037206090655824 -9.874430945699304 61.894101587225471 248 250 247 3.3522197135277407 14 12 13 11
960 -5.9111593141343128 3.5737308109312118 4.9172258400332849 0 0 0 0.71576559113200022 12 299 15 411
2378 -0.59276562838848657 3.708250363051794 15.118306404527493 91 94 73 1.0801851318635738 2 710 3 930 8 585 14 909 9 863 13 822
1704 -4.8464115204951534 4.5317843919981264 14.577009249892642 21 38 30 2.1551974604962054 4 27 2 18 3 15 5 22
1367 -0.10514493793482416 1.2261832918654059 15.442107120185378 145 147 144 1.6880926061383688 5 669 10 931 11 595 8 837
1918 3.2188428691826463 5.0144958265254909 10.959543099576535 144 146 142 0.48905730287093885 2 244 3 157
834 -8.8562371095699763 1.9644504354946146 10.501317687466617 25 18 4 1.3554268450087432 14 1140 15 930 9 1126 4 759 2 751
2252 -7.2129345959239197 3.4447268608201935 13.384560313071688 72 144 124 2.0865830976956468 12 910 9 872 6 585 3 478 7 685 5 848 11 685 4 231 5 351 1 592 2 267 2 655 3 800 7 799 9 1039 8 930 13 794
1241 -8.3435797207455629 6.0719742250965423 7.8120183096418963 165 165 165 1.2251003312303337 10 267 11 152 5 119
1710 -1.4497833277512617 -0.88768418540803584 9.4797317216093848 128 116 115 2.0823829986371876 5 473 2 38
217 -8.742315564421963 4.7944753221148133 10.139787679327375 62 87 55 1.2364586069661154 12 106 9 85 14 97
1001 -3.0965571824578957 4.4292519431320923 11.323823846435385 66 83 73 0.082469808250805965 9 564 6 618
2419 15.715537497863563 7.5975061118459832 121.58256477601104 106 105 103 0.63458382340308717 7 426 8 535 13 473 9 666
2428 2.7908977158607642 -0.080997839386638362 117.19470731930106 136 144 142 1.3410091409575202 8 238 14 739 13 573
1552 -3.9194188724580927 4.2637302327923994 14.060645903116525 58 73 66 0.60737055376807858 4 216 2 260 3 296 5 394 7 281 8 443
59 -7.5478661897356627 1.2624967652690229 12.334774569191561 114 91 82 2.5929546707476763 14 360 5 108 15 1120
843 -2.2857475286624696 3.0932607464341912 7.8718461314492094 0 0 0 0.35671715104313861 12 1047 14 1040
2261 -1.1378294603273267 5.7701114126469841 18.997023647468371 224 226 221 0.84043495116137623 7 9 13 68
169 -8.4920164235839941 2.8721491951504317 10.785113186785473 82 82 81 0.70987271174486422 14 959 5 881 15 1160 12 1224 9 1137 6 592 11 522 4 630 2 570
1587 -2.310411306618128 5.8917110474276821 15.731868650629043 159 161 158 0.91653244927459376 15 861 4 374 2 481
1038 -3.9199300168348215 5.0649506119921268 14.187427321915006 247 249 248 0.87024255004679762 9 95 6 94
2456 -8.2778927254848682 9.1835866976872182 55.346909469227704 0 0 0 0.81875659281852498 14 2 13 6
1445 -3.658514689808976 4.6733075079339086 14.249905363439604 230 232 229 1.79382625340758 5 24 4 43 2 36 3 27 7 23 8 31 11 19
1817 -8.9046307301996563 3.0578259487917996 9.9781790757018527 10 11 5 1.6835304096980475 4 610 14 1060 2 556
1108 -6.5360397945503861 3.7911741274443593 12.965712200399038 49 187 169 1.7478264536742032 6 402 10 411 11 377 1 353 3 661
2377 -10.130841410018919 5.9402430818892675 130.62991568117903 49 50 44 0.62242589284289918 7 215 9 364 14 318 8 243 13 206
1771 -3.6928472187389421 5.0155100562523147 17.211545482327484 86 95 90 0.96721451593038632 12 425 14 675 2 300
2108 40.309686816418797 3.3002829226991022 80.936110028804364 21 6 3 0.67849895495670542 9 300 7 227 8 213 13 324
1434 -9.4261580907975482 8.9704856313763894 7.7627541808888365 0 0 0 2.5262431618774528 6 201 10 393
1806 -0.18305501880021049 4.0533852488006215 15.88377189364004 88 78 66 0.50534028898835681 4 725 2 521
1097 0.29133574022734482 1.6183290014188547 15.133421531031338 241 240 255 1.0087421742385412 6 348 10 358 1 248
1021 0.55706901037539658 2.156749050661436 14.978788281176374 70 70 69 0.90445036928893396 12 1101 6 810 10 882
1730 0.80756640902260379 4.7760406056195599 15.744032269191685 79 67 57 0.86400816211886466 4 95 2 96 3 138
2439 -7.1039916903226636 4.4773729527699055 13.31430708365113 24 75 70 0.24863336729009983 9 884 13 773
1859 -8.3167504999939776 2.8770182677809681 11.061595172913151 64 65 61 1.4727998663450652 14 1066 5 884 15 1009 12 1058 9 1286 10 940 11 877 4 626 14 1231 15 1040 12 1227 4 779 2 685 3 745
66 -8.4057264979669402 3.7272572781354669 10.808923458585197 174 200 160 0.641975749932857 14 424 5 538 15 449 12 452 9 442 6 598 10 525 11 507 1 503 4 388 2 257 3 293 7 390
1484 -2.7512119853458272 7.1085259987559306 27.134543637432117 7 7 7 0.671393185480472 6 220 1 77
2193 -7.568912309379983 3.8884114509287322 12.447001562320629 45 85 69 1.1376147448619109 12 937 7 701
1182 -5.1146756619812868 5.1372358819363466 10.071909877335681 241 247 242 1.5606136079372424 5 31 10 92 11 62 4 31 2 23 3 29 7 37
1774 7.4896576292808801 7.380558436343712 29.030304638225953 126 113 105 0.50028820099361826 15 786 2 320
1809 -6.6428151846843146 4.500319655219756 13.135761614764707 68 154 150 1.4869369976633331 4 428 12 223 2 535 3 445
1100 -9.501337244157984 4.3385108861338582 10.099067666563878 82 64 43 1.0367171748033119 5 243 10 379
2281 -2.5861702167793057 5.5039691570549367 14.293692884055593 192 190 178 1.5305980276298412 7 166 8 169 3 94 13 120 14 193
189 -8.2183646549632261 4.7797784714189797 10.947223624567114 39 57 35 0.94967871800004777 14 1083 5 1037 12 1179 9 1250 3 704 7 749
1682 -1.8027940750988594 5.4298622768954985 15.360170449842689 224 226 223 1.0348087951266929 5 373 4 224 2 197 3 196 7 351
1607 -4.4290082551224677 1.4097343502962216 16.678482120483256 106 95 85 0.31549713132269758 12 70 4 520
1943 7.4287218205876293 5.9940586735180066 27.363625428699585 188 172 157 3.1639375018256066 15 358 3 284
1026 -2.5756607505843303 3.4328832335633344 10.329716734705862 74 97 89 1.0023128737947107 14 1237 6 896
1735 0.085062924443332508 2.6580608560116739 14.155919421184763 71 59 47 2.1781905913665569 5 153 2 119
2444 -0.58807748887957578 3.9151304071467568 14.522262090364721 32 34 31 0.065020952175510655 9 1075 13 948
1733 -0.58337479412878668 0.75521721435050249 15.415157422065644 198 174 160 0.82956551484585928 4 349 2 110
2442 -0.75206631310467709 3.9720498204845942 14.786681125578491 47 49 46 0.016652764099752072 9 1076 13 806
1431 -7.5460041119393768 4.0485892747338843 11.849549542060924 18 19 16 0.93886792150995457 14 106 5 111 12 151 9 93 11 91 1 139 4 100 2 94 3 86 7 88 8 82 13 96
2066 39.050197673812853 9.8355759650734438 72.769136478203933 96 54 30 0.30529546596328505 9 34 7 31 8 35 13 42
1729 -1.5736007341487368 5.4621742716653978 16.252043977400341 228 230 227 0.53491659430064931 4 97 2 95 3 90
2400 -5.4096231000946764 1.5268927520226034 2.2086349285582458 139 140 135 1.6055363631114936 9 8 13 8
1228 -6.8461930014243233 5.1353598777646789 11.058513496145737 190 195 187 0.26051515904490674 10 248 11 112 1 295
1683 -5.654069660782806 5.0327830653536481 10.887845094709728 181 193 189 1.2365447126325246 5 513 4 267 2 186 3 273
2392 29.956348738990691 4.4379492760073793 115.944426253004 80 92 98 1.2902853623135757 14 349 8 361 7 303
2090 39.502624765268685 5.2235115854402601 78.143370469741413 0 2 1 1.2881693470390276 9 185 7 125 8 136 13 282
1381 -4.4169521397098084 4.2902050749679219 13.863068716203605 51 61 52 0.51554334207699548 5 753 11 653 4 596 2 541 7 656
2391 -0.37945378214899633 -0.27027286007555196 11.412552374765522 0 0 0 1.6765923443574957 2 173 7 306
1717 -4.9714861915977986 3.8760613689185841 14.959120493986092 90 93 90 0.44001479563926899 4 69 2 63
1380 -4.4436790244013498 4.3793694203880289 13.843482284298172 67 79 69 1.1510219925665746 5 1046 11 652 4 884 3 958 7 834 8 750
2380 -5.9052639172292674 5.3404284621589362 13.325733609466432 56 63 60 1.230012339523237 5 91 6 207 10 128 11 117 3 71 8 168 4 103 7 115 9 636 13 266
2415 2.4790382334477861 8.4918989442784092 12.081953690488001 57 59 54 0.23116169127986264 9 423 13 387
1706 -0.0024176336126541351 1.9100979774235065 15.598419874562842 254 255 255 1.7826686140286272 4 17 2 20
1800 -5.7431391058713794 5.423991161060143 12.807506184613477 58 131 130 0.4507489576368402 4 527 2 482 8 771
754 -3.1450091323261296 3.4970172414579932 10.24566920394334 15 33 19 0.19133492217678494 12 629 9 610
1463 -4.818989802921168 4.6078229055194768 13.557576048926363 236 239 236 0.43859940810859038 10 253 11 231 1 287
1835 -5.1099778972910608 4.1666515168796554 15.498114519135534 103 108 104 2.5710271411674221 4 720 14 1039 2 659 3 650
1126 -2.1786847433908796 3.8760438350877635 20.267603912283175 9 9 4 2.4230830635771303 9 233 10 545
174 -8.6271502564238656 2.7114472512889001 10.627278276741823 16 17 9 0.9135207849174124 14 968 5 928 15 1003 12 1226 9 724 4 625
1592 -7.5904235702114544 3.7217832577419006 12.427589309688017 39 119 110 2.0216383113474978 6 400 12 457 4 424 2 251 3 404
2301 3.9096861736998436 7.1438143651294048 11.409989534915544 53 54 49 0.021045779118869012 7 83 8 265
1627 -7.6000257223356371 4.5214013960885175 12.91495477446944 69 118 91 0.29746705997303124 4 611 2 821 3 635
1290 -8.7349399727405306 1.7351401175171639 10.599467322375416 34 36 32 1.3082982098769109 10 336 14 222 1 333
2037 -5.225525716912041 5.3830891007867328 13.536143976896232 58 59 58 1.5527522764196404 2 130 4 150 10 261 1 214 12 302 6 221 7 168 3 78 8 390
2204 -9.88995616762314 11.883850423914902 98.327369997083579 41 29 13 0.50368174424134848 5 775 7 752 8 641
2239 13.799065711510648 5.1654666784305148 63.775344986180677 7 15 14 1.0437789454353412 14 334 7 292
1530 -3.9284326381596268 5.0738843225601524 16.978507684353417 56 69 62 1.2903768374604869 12 712 14 1188 4 140
1193 -3.4289853519929667 5.0320539983643524 11.254824057981322 239 241 238 1.9006090834226121 10 9 11 8 1 9
953 -33.235628391671817 13.418694505687915 79.081603230249698 71 90 84 0.36522871565671133 12 448 6 326
2446 -14.242091099689009 -19.034300509578031 131.30478144116086 47 49 46 0.55432943546873659 12 990 14 1024 13 980
2371 -4.9884514742110069 3.6452936181608924 14.106294939640286 68 80 74 0.44364348508345924 7 843 9 1272 8 951 13 937
2367 -7.7179110887612827 5.091510148246992 11.590141111288034 47 70 42 0.50736691596487671 2 803 9 959 8 943
2347 -12.579084950726958 -11.300461741554264 135.68790378941029 97 97 90 0.34982643900592914 12 735 8 705 13 734
2045 3.2357673087651864 4.1162062793721574 10.057717422149238 41 43 40 0.022150684115540817 4 204 3 96
1336 -5.0325174336032559 4.3839162110301446 13.294507584128411 245 245 243 0.20755873546794626 5 755 11 472 3 606
1132 -13.902499542799546 15.684318604226769 20.355474056811818 34 36 33 1.4194901506106146 6 566 11 520 10 584
1841 -7.9636279182694709 0.29066360226093724 12.130886122187123 10 9 7 0.43556445991762083 14 45 2 738
1873 -9.6914028088762123 2.7446733247258539 9.324290875315679 73 68 72 3.2095453946913777 10 86 2 706
1164 -4.6241108858482347 4.4344661284654654 13.945140665949319 70 82 66 1.0158155031880685 5 789 10 903
2342 -3.6129559209587132 8.779505072463996 115.76920724134924 186 192 182 0.43803836483401443 7 855 9 701 14 892 8 656 13 856
2263 -5.2664333855492478 3.3741644536048225 16.740478913237141 1 1 1 0.39606068967530672 11 23 8 52
2334 -2.6845343086006705 3.0764668869838805 14.502706789280065 91 71 46 1.8097163070882565 3 152 8 568
2310 0.055755453512830254 2.1822719436040412 15.011771618874032 0 3 0 0.86091288656009934 7 331 11 194 8 338
375 -48.326063797536257 -21.306883663519972 151.48705994613002 146 146 144 0.42450294864188243 14 84 12 87 9 74 6 88 1 91
1869 -6.6090438454978075 7.1787348433966907 8.178460516935095 55 56 51 0.59354203458982357 4 403 3 577
454 11.970418589602142 -16.920550203107506 187.67880325946004 61 61 59 0.70791489152656284 14 355 12 387 9 323 8 317 13 333
1093 0.88111686944096057 2.4436047836624439 15.352251001821545 3 5 2 0.021398759546726646 6 613 10 323
387 -2.0753172224686338 4.997869167184688 14.666171868896706 229 234 230 0.051865549303266256 14 133 12 135
390 -33.29784546054433 -23.782504884145158 146.97892707089059 96 96 88 0.15299943357743781 14 149 12 154 9 132
1177 -2.5771840561610793 5.0023220307486849 14.55715059528155 73 87 75 0.95347890021931192 9 578 6 376 10 388 14 690 12 494 11 354 5 311 4 390 2 256 3 269 7 480 1 293 8 611 13 594
1886 -0.31352836614572238 0.42491913454292946 8.5703893189077132 2 1 0 0.46366264934864454 4 47 3 46
393 -12.622727529384306 -22.067890209026299 132.81406258328755 40 44 39 0.28419047574035217 14 151 12 163 9 130 13 100
1102 -4.3804336346264483 5.0273181589776303 13.910620048527676 60 76 69 0.82131848776084715 5 327 6 375 10 387 11 353 14 688 1 289 4 425 2 377 3 268 7 483 8 615 13 648 9 800
469 -11.196121978932895 12.274181956754381 20.003893664409745 125 126 120 1.5480265282360253 14 385 12 442 9 614 6 372 1 396
1178 -7.2752160720845565 3.6965025251075296 13.233861065335585 46 126 103 0.33894422557527865 14 922 12 900 5 744 6 758 10 740 9 864 11 678 4 562 2 531 3 611 7 714 8 787 13 786
1887 6.0255500026394948 2.793807084219929 25.30723246815559 0 2 1 1.2473166925193278 15 83 3 47
394 -9.2597267006579269 1.9906731604730719 10.552213672597038 6 6 4 0.4252550389443891 12 166 9 1005
395 -8.293757724621317 2.6212243861825555 11.161165048195112 6 6 3 0.517101585393545 14 155 12 171 9 138 6 228 10 214 11 255 1 309 7 140
1104 -4.5903939481461986 5.3566094762140803 13.398739646891908 207 212 206 0.68659372294861565 5 235 10 391 11 240 4 151 2 131 3 135 7 165
398 -49.857684279046786 -28.433781755449704 154.48722681729703 142 143 138 0.6896315151564647 14 209 12 184 9 164 6 262 1 174
1187 -5.5960504111039686 5.047344545128829 11.643115532906808 34 112 114 1.396241143757861 5 377 10 699 11 384 2 340 3 432
1896 9.4656298878033507 6.6777714345887222 28.560399976047364 7 7 7 0.25876286110905961 15 105 3 73
403 -27.90585072516923 -12.462490152488412 138.43044525397474 1 1 0 0.29168347699526376 14 171 12 194 9 155 6 193 13 105
404 -25.671975105208801 -7.6533121508661361 142.79885595768201 123 125 121 0.42899808379453175 14 162 12 197 9 142 13 149
405 -5.9109959954043561 5.0486953326306301 10.661545514979442 25 112 99 1.085552639391582 14 192 12 199 9 117 6 202 13 104
406 0.14091125401460655 5.26747977357316 16.640634106145182 143 141 126 0.33327721882341899 14 205 6 139
1900 8.6737241350741918 6.34396577012114 28.137745371421545 196 168 149 0.6322451033524108 15 104 3 85
407 1.2328009017680845 4.9906076395908245 15.145507825515679 223 225 220 2.6376899381553085 14 277 12 203 8 116 9 402 13 247
415 -9.6803363326535905 4.8349020299806353 10.211029542520372 253 183 12 2.9064530300525395 15 395 12 230
1125 -5.0669305895059527 3.3826192016953311 16.044757487287679 153 112 54 0.42467567674437723 9 1040 10 540
493 3.2612988477383582 -16.793607952648681 120.50694316961339 74 75 70 0.29224719889874151 14 477 12 512 9 491 13 506
419 -18.267093480043261 -5.0494704554299217 133.74228001157095 3 6 1 0.42216297439984396 14 373 12 244 9 380 8 230 13 245
1128 -8.2880655527146523 3.2986972689062992 11.113568576835151 48 66 45 0.86636104124359314 15 461 10 553 1 527 2 263 7 373
1837 -4.9006744054543763 4.5197687955641035 15.476372956584607 70 78 73 1.8611656629460516 14 844 2 686
421 -8.6683083041744702 2.3846660507488839 10.675345571913892 7 7 6 0.65783150875712559 5 270 15 196 12 257 9 148 6 250 10 325 11 252 1 327 4 179 2 153
1130 -0.74699308049705171 12.147173265377759 21.385532714725713 39 41 38 2.389918396071165 12 445 10 564
497 14.15163820607348 -13.154811793158911 142.51435018541699 160 160 158 1.4943149196507737 14 356 12 519 9 212 13 239 8 401
1206 -8.1923859044346194 6.7626016209373603 9.0732945142024395 0 0 0 2.7126216876069691 5 59 15 71 11 41
1915 -4.8993984141630662 5.3467123480314047 18.094747750211678 0 0 0 0.0014740354353524924 5 283 14 830
422 -6.349402090120809 2.6517214475643911 14.606798739807735 29 31 28 3.8949115311069757 15 251 12 259
423 -7.4395811502611817 2.716973058573326 12.293544459238687 50 33 21 2.4460575338618922 15 609 12 260 4 337 2 428 7 405
427 -40.303274116621218 -30.729751166238586 150.90508807382184 44 45 40 0.24334988630326307 14 241 12 269 9 198 1 120
428 -35.150758323704373 -29.40434108573524 153.08874744814253 101 100 95 0.41367937753918482 14 244 12 272 9 237 6 256 1 175
430 -16.687121348864434 -19.02850817855462 137.61535999522158 56 56 54 0.46878761569072114 14 251 12 279 9 248 13 231
1924 6.0489305353725591 1.5593753688305363 25.557513947790181 52 79 100 0.16789437405477142 15 342 3 182
431 -11.478910533606486 -17.86505457257444 130.2324584483211 36 34 29 0.15801087854723714 14 252 12 280 9 249 13 232
1140 0.14812386171228384 1.708797298005245 14.579656602795252 185 186 191 0.024744759729403459 6 687 10 672
432 -0.0095247610842927339 -13.154444988890569 120.50116244545039 125 127 124 0.4124764695009947 14 366 12 283 9 353 13 441
1927 8.4971157113820706 8.0620871709634869 27.948173743113259 29 27 23 3.2946311824564343 15 462 3 188
434 -24.904380455181617 -13.191253970070381 131.56227435055254 118 119 114 0.17151783594929074 14 261 12 285 9 251
1145 -8.4770054699421387 4.1785787505056229 10.41073678673585 123 158 110 0.97800476035661355 6 773 10 707 4 531
438 -11.197337157668763 10.525046591656213 19.493575917474523 84 86 81 1.9210772546699673 14 411 12 308 9 429 6 199
1148 -8.4361211565410805 8.5798317796709682 9.3289370392231366 120 123 114 0.6122903288590289 6 300 10 770
1857 -8.3004383097302767 1.9136613831332545 11.130503758826457 153 148 120 1.8110563978044858 9 1128 4 812 2 759 14 1126 9 1123 3 822 15 1031
1933 -8.2446234736028838 2.7591998888046922 13.379359608719474 0 0 0 0.18321475855177305 2 232 4 228
440 -9.7747529816379437 18.085658443618705 35.939075153532301 55 57 54 0.9267875153607732 14 287 12 314 9 277
442 1.1810803239506207 13.065566789007068 23.607150906887213 65 67 64 1.022654293013725 14 346 8 861
452 -21.101084310467389 -11.550943293193681 139.30620847452374 145 145 142 0.40514806705338657 14 357 12 384 9 325 13 446
377 0.29540086111786135 -16.420376173216656 113.56824325820436 205 207 202 0.3654084746774392 14 150 12 89 9 157 13 137
1870 -0.4241561201959782 2.3159678206462249 15.265391515046398 4 4 7 0.36557266460423959 4 458 2 621 3 486
458 -25.820899253835748 -4.7666129000361819 131.55544193893351 57 59 56 0.30088626542334646 14 372 12 401 9 335 13 337
383 -16.79962572563068 8.1508751669262889 98.47748328616332 168 172 170 0.95949498974507574 14 90 12 113 9 56 13 62
1876 -7.0599347134419768 3.7183450496493431 13.347011188058069 47 125 123 2.4301905396945354 5 874 14 921 6 757 12 897 10 739 11 799 4 576 2 416 5 741 9 848 6 754 11 796 14 1077 4 571 2 359 12 906 3 408 3 475 7 687 13 785
461 -6.0954481309326578 0.94385390106163947 14.381129805430541 110 88 85 0.56026398761278684 15 721 3 351
386 -16.879065144230559 -11.950117116175637 135.68134181683453 155 156 151 0.25830257597727319 14 122 12 129 9 109 13 107
1879 -6.566532012928433 4.517644457511321 14.775007726784825 254 255 250 0.47060354646508346 12 306 3 7
463 -33.383750589141663 -4.3337026900748317 144.54291936827519 183 185 182 0.66682237509323861 14 374 12 409 9 347 8 226 13 339
1172 -2.8773559376046616 3.9655852660774396 14.390776376977277 67 84 76 0.11898389909764942 6 895 10 1005
464 -13.603364333294868 12.230951704917864 58.135788526568057 49 69 58 0.072218940355238903 14 401 12 426
465 -4.962214332924674 4.9030453242598329 10.663657599054634 54 178 167 0.32598770477322181 14 405 12 432
1174 -7.6673408807567549 4.2509896891526457 11.63408042799688 49 82 47 1.1909310268892421 9 566 10 1022 13 561
1959 -7.8623563152624598 17.608038287032613 17.834547020611787 70 72 71 0.094537169080343014 5 392 3 420
466 1.3207918298553105 5.2240120461371404 15.383696545927254 197 199 196 1.1928359967541107 14 654 12 434 1 212 6 198
1175 -7.1889165773772383 4.5152518989177128 13.146867501464207 40 144 137 1.4034659456582337 5 760 10 1026 4 882 2 373 2 778 3 928 12 1190 7 651
468 -11.123030230814351 11.591372680460738 20.538770801781492 72 72 70 1.2748042314284793 14 285 12 441 9 990 6 296
1961 -7.1180523360409671 3.1755432607645036 17.927250787721071 0 0 0 0.89641656331718911 4 372 10 614
470 -11.20925987053487 17.883620927920482 32.564015379409803 62 64 61 1.0142484256410849 14 442 12 443 9 427 6 389
1179 0.056367567520205185 2.3666230652704172 15.227380565925117 34 32 26 1.6950449075595331 14 154 10 350 9 370 1 304 13 328
1889 -1.8039081517742752 2.2362157688621873 0.85495576348940894 0 0 0 0.43966609129144263 14 200 15 306
397 -49.427836333282613 -9.660644620630201 146.92989376411515 82 83 78 0.28587885278129394 14 168 12 180 6 164
1890 -2.3617377166397455 3.7719796847749869 15.757415691515607 251 253 248 2.0568229587154443 4 52 3 59
1261 -6.8250618763795918 5.585241086086608 13.616134508487734 157 184 186 1.4009637722669257 10 593 14 865 11 238
484 -3.5816749348161654 -14.865264087337518 123.10027090801859 200 202 197 0.43515137823348427 14 474 12 500 9 497 13 503
486 -60.682768426003278 -23.2155316277005 163.0359770033748 14 14 12 0.64402019027879653 14 482 12 502 9 341 6 456 1 419
1904 -8.1299343523804062 1.3476159222247466 11.365251564490764 2 0 1 1.8587394266919766 9 140 14 352 3 99
491 -63.066671142933274 -24.690883476674934 162.72752215074482 108 111 110 0.40475393435258156 14 248 12 507 9 244 6 252 1 271
416 1.4451504809724565 -4.700180837201696 109.5546725713095 141 142 142 0.90452863573416875 14 220 12 234 9 201
1909 6.3577544174420533 2.0848193343909509 25.193172241075981 41 51 50 1.2243869294247234 15 259 3 119
492 -19.575927658937282 -25.995180597338312 145.37392056607257 136 133 126 0.58275760752366379 14 486 12 511 9 521 13 717
494 -3.4321850660284281 -13.291748477515485 124.10130640519805 190 192 187 0.29901058298103067 14 489 12 515 9 499 13 499
1205 -11.420779373709625 15.110820877117193 18.613381730237251 155 157 152 1.5750225141437311 5 85 11 40 7 24
498 -70.798087141522174 -13.866256292368798 145.53772172492191 78 60 45 0.45520264400373034 14 521 12 520 6 525 1 478
1995 -2.7457990405721162 3.7048906823501055 14.723941767178776 72 78 74 1.1261522502155488 2 602 3 664 8 919
502 -8.6352586645726142 2.5945613996888022 10.567498028511915 192 193 172 1.0782276385225649 15 593 12 530 9 479 6 596 10 581 1 360
582 -0.02818622992409562 2.1912256301299085 14.690172974142939 108 110 110 1.378066413912038 6 808 10 881 11 721 5 852 4 694 2 632 3 768
2000 -3.5155211405608258 14.413967447842314 14.363830747667587 24 24 22 1.277409732206505 2 775 3 741
507 4.8149408964563909 -16.810432808240062 119.28987119412101 207 208 203 0.20877012708295178 14 525 12 541 9 492 13 505
508 -13.333344508483949 -18.854494873786539 132.84199535975193 97 102 95 0.23863190992898853 14 706 12 544 9 489 13 508
509 -73.851530209306063 -25.601738587238991 165.06031913649093 93 94 89 0.97246248209299568 14 771 12 546 9 519 6 502 1 422
2002 -4.2596092107522621 5.0844848154627211 10.916121599785106 145 159 157 0.6306507681415422 2 832 3 765
2006 -7.7583718269948916 2.4690604900803894 11.74232533993292 5 2 0 0.6714755660533126 2 748 5 1050 3 828
513 -7.4143367637144388 0.099796578228320568 10.930439497775279 128 125 120 1.4575341706999625 15 21 12 553
1862 -2.0674744095346838 0.32912660421353163 13.856541866626053 154 133 123 0.63963621327946762 4 486 2 54
439 1.2725607814264344 10.046325771955578 21.989242545407954 95 97 94 0.76876455018235423 14 413 12 313 9 430
1932 -7.5706408258540803 2.9859893681682173 12.675533089727841 24 102 92 0.83102408059012145 5 356 12 768 3 229
593 -12.037544364362811 8.1597757518489118 85.774218562008585 32 43 61 0.52533494102115663 14 1223 12 1063 9 1036 8 836 7 634 13 857
1302 -3.9740839709927296 4.5100758990415262 14.020839000843198 235 237 232 0.81678053539238082 5 239 11 348 4 171 2 204 3 190 8 189
2011 2.0519754667986643 8.0126932718416928 12.996619259610874 32 34 31 1.5995420892710652 5 972 3 887
518 -7.9630056540541378 2.3056818298308368 11.692548775816643 188 193 167 0.36626759868638131 14 546 12 584 6 577 11 396 1 548
1227 -2.9964639469134031 4.5824610399096999 14.096886123121271 247 249 246 2.0423842371828527 10 176 11 110
522 -7.3614317932782667 1.2028805957466213 12.300343421056906 62 64 61 1.9655537995408283 15 713 12 595
523 -24.630898390500764 -5.1294240169905692 140.38263425409562 59 61 58 0.51167148451734201 14 569 12 596 9 563 8 329 13 340
1941 2.2382632193282941 7.1276723260584474 10.908070253416682 158 160 157 1.5266571933444439 2 788 3 278
526 -30.810357768888956 -4.9650903966773026 99.643259037383501 110 111 105 2.3525314449011221 14 488 12 604 10 439
451 -25.005834083888985 -11.168172723563814 137.44525220091589 133 134 129 0.65791329600957793 14 358 12 383 9 356 6 445 13 444
1944 1.0713284155017413 3.406321521088282 15.395952351175298 34 29 25 2.2073064362096915 3 291 8 1061
1875 -9.0126086216891412 4.0840984597742223 10.084016015116003 14 15 12 1.4092416441744664 4 870 9 1304 2 810 14 845 12 927
528 -2.1439464011447518 4.0919152650737152 14.833182222218486 84 106 93 0.24449760745639082 14 607 12 635
384 0.62114164289292262 1.7663812459768169 15.821589110707936 192 194 191 1.321030892136817 14 76 12 116 9 77
1877 -5.4167601372606331 5.456378637483617 13.809910356241609 25 84 77 2.5447607650504276 11 156 5 159 15 101
459 4.9293171271360947 -4.3007665365355185 121.47387241939686 106 67 67 0.70175584603366004 14 375 12 402 9 385 8 331 13 248
2022 -8.0611843208671701 2.893162341981149 11.288435999851277 70 71 66 1.5683619688867552 14 237 12 368 6 591 10 542 1 517 4 282 3 770 14 1217 9 1025 15 1041 2 667 7 798 8 1034
529 -12.793608142595717 10.300432580971707 54.811925814966955 82 97 89 0.37238884338117517 14 608 12 636
531 -12.898164317179598 7.9980644314248641 87.239978692717102 11 18 24 0.8133310886991566 14 621 12 659 9 629 7 300 8 367 13 548
1242 0.046473331490333537 3.8378380756612676 16.422764673363126 40 37 30 0.62149548164567392 11 166 3 210
2126 -9.7009919718890245 6.5008005391437731 105.13167581829973 122 121 116 1.3515175370995998 9 635 14 455 7 309 8 307 13 313
633 -54.800126007888188 -5.0128592018048934 147.80950045296282 52 54 51 0.70681840104874349 14 370 12 407 6 351 10 234 1 400
2136 11.369148804003402 15.721701604022183 55.952034453568423 1 6 1 1.0526187438280468 3 250 7 376
634 -7.1496975790604731 5.9617073491288792 22.28152646747052 59 75 64 1.719413433810163 12 428 14 696
642 0.92052053369674236 13.319043222477694 21.946346375279116 160 161 157 0.39137752146000732 14 848 9 827 13 896
500 -13.496626952826592 -8.5691579096699577 134.96506616346107 51 51 35 0.5421527922799485 14 498 12 525 9 556 8 497 13 537
1993 -1.6965607442223043 2.1875308619173683 0.51114841771714348 0 0 0 1.1789808979276311 14 468 15 945
645 0.21339782355475165 2.8007620779388422 15.764889999106876 19 21 18 2.1389832763447854 14 11 9 12 13 20
501 3.7244754669779101 -9.480301331517218 120.74203996125145 130 132 129 0.57567479693489843 14 507 12 529 9 554 13 533 8 698
1994 -8.3435344288949445 4.0635874078745928 10.945450005054031 106 127 86 1.0692928649341136 2 563 3 656 7 955
646 23.067033208231855 -7.6835933850012221 101.9626703328799 39 56 66 1.266576693039978 14 14 9 14 8 11 13 12
1988 -7.944037450667218 3.7642633117759319 11.387185463411278 83 107 63 0.45008891738628293 5 1012 3 623 7 951
2063 -4.3161203044599974 7.0953459613334964 84.993524807050207 198 188 185 1.4707421714345938 9 31 7 16 8 20 13 44
570 -0.79404387048910352 13.117961319394517 22.293241055977926 67 69 66 1.9229734707990385 14 1209 12 872 9 930
640 -2.3919038000093664 4.6607102603340742 14.820523695075794 69 89 77 0.089813411181095759 14 678 12 702
456 -29.324735997338873 -14.497074074366205 138.30351044364437 95 96 92 0.51591558566807116 14 367 12 394 9 348 6 451 1 397 13 233
1165 -2.7969224455953157 3.4048670085344725 14.69814374877136 125 131 130 0.74146132686834876 5 878 10 915 11 801 3 653 8 931 7 801 13 932
1874 2.9197849241060601 12.591999566111353 14.867256031746237 127 129 126 0.4594328916101979 4 550 2 772
14 -8.8583257332677618 2.3592290677408267 10.406754812193684 208 202 173 0.87953417742091289 14 114 5 131 15 107 12 168 9 103 6 175 11 149 1 205 4 138 2 90
638 -68.280644140413997 -12.469886362976423 143.29102035666918 78 60 39 0.33987052745746221 14 495 12 528 1 479
1347 -6.0917510823144898 4.8981913903868444 10.563761575260102 184 194 193 1.6500131473527908 5 378 11 531 7 360 8 625
2056 2.7965542204856506 3.8710134996930297 9.2834264112790219 120 122 119 1.0948575634307702 4 676 3 668
503 -3.192537308203744 -9.3365099365749522 122.33160123158909 204 206 201 0.26653239732611878 14 497 12 531 9 553 13 539
1996 -2.7186675420281117 4.4052510314156352 14.589721706884525 77 84 76 1.19909509544356 2 840 3 692 7 821 8 1052
2141 -7.8879430563846302 3.8946552998996586 11.386026001763671 30 49 21 0.83534678620521008 9 466 14 436 15 450 7 389 8 430 13 375
648 -36.203388598289742 -14.693323935808127 146.44759144728866 3 3 3 0.49431897182287426 12 21 9 19 13 27
651 -8.9323215944124215 6.564274912028031 47.005985383951142 45 18 19 0.59337516787710243 14 32 9 32
653 4.2053818007867747 -5.6964937474520125 99.458915523622011 230 232 229 1.5899329507886053 14 43 9 39 13 48 8 42
656 -3.3918118098212164 7.8007739130847797 54.27985188983493 1 1 0 0.025509203628665961 14 58 9 59
660 27.46715564644343 -17.069280877407117 117.24015324207033 255 255 255 1.1309969645234699 14 81 9 72 13 77
520 -29.658068067465162 -6.8546066836741417 146.24894052294292 105 107 104 0.94107195026598878 14 730 12 592 9 557 6 527 1 482 8 695 13 531
2013 0.072257982215722757 4.626181106261904 14.245105999412022 48 48 45 0.35824933612150039 2 566 4 862 3 896
595 -8.9705608761105573 4.6239944163504827 9.9258831631062172 27 34 16 1.2365206081934261 14 820 15 877 12 1083
1304 -4.9296819261331848 4.9864545695918263 11.32069323147655 4 50 41 0.90174092183646992 5 379 11 355 3 193
665 29.186152455948378 0.71152317525598419 93.806142382346451 226 230 229 1.4642244496403012 14 113 9 100 13 99 8 102 7 123
483 -33.180613694416543 -27.252515248913525 151.66378890885079 148 147 142 0.19521029906723544 14 451 12 498 9 390
514 -32.400527515060048 -17.44254111163232 141.14405128974218 51 53 49 0.34593588143354459 14 527 12 554 9 490 6 499 1 418
2007 -7.9414537253567614 3.435002978466009 15.596888242650298 35 66 71 0.5830954780737434 2 458 4 817 3 829
589 -35.058386482354322 -4.7780591674511985 142.16499201418995 140 142 139 0.76195458405201022 14 1007 12 1009 9 997 6 691 1 551 8 688 13 723
1298 0.56053053095632555 2.1671887179015537 15.212966991560132 5 6 6 1.4277357780056315 5 428 11 336 8 846
659 -8.9458764460936724 7.5876113554751292 92.312004713314693 16 13 8 0.21480647530369101 14 108 9 69 8 65 13 85
584 -31.567869811466672 -5.7862737369598349 146.64360689009135 107 109 106 0.61813691390111269 14 1179 12 978 9 998 6 914 8 874 13 726
2077 36.657240269371165 3.7889692804418509 78.219123497235117 245 240 238 1.024157114635962 9 70 7 68 8 62 13 86
1970 -8.0785288717922441 3.1625385127519796 11.323041800058135 11 9 11 0.55960536179073339 12 918 3 473 7 848
477 -52.278801280363268 -30.605465986169907 155.2108779801292 105 104 99 0.53443071848709178 14 452 12 482 6 430 1 261
35 -7.6098359982923247 2.7285400057061082 12.200654186851215 14 16 8 1.9308618450126582 14 231 5 353 15 606 9 231 10 580 4 336 3 356 8 567
33 -6.35037828636551 1.0120605930815765 14.820518060511576 172 174 169 0.76541811118387737 14 219 5 590
668 -1.0941633597600939 10.742274103914738 23.776110883651608 70 72 69 0.43715279346791003 14 187 9 115
1300 -3.4316584600093489 4.3759800076093516 14.170450092642064 250 255 251 0.35679447874881959 5 540 11 345 3 298
661 -7.4315846567295951 -0.11599069916496546 11.381662832371779 0 0 0 1.2952739959644088 5 148 15 696
2162 -7.672790103205438 4.2859417094399763 11.65330006739114 0 0 0 1.8313042034018663 5 514 15 554 7 479
669 -8.0050105569612491 4.4747884218708034 11.19626535587528 106 150 99 1.4437644721635563 5 163 9 124 6 213 10 173 11 160 1 220 3 739 8 776 9 1291
2087 -1.9533341727921609 7.3812688077050108 56.274773943095688 152 121 90 1.0408609751339259 14 306 7 107 8 138 9 437 13 283
487 3.2441867851176709 -15.894120699146436 123.15217727784288 141 142 137 0.26789260172256435 14 473 12 503 9 336 13 437
1196 -7.0408068669085901 3.9039297819934697 8.7593351836864528 55 68 50 1.520586192186324 10 13 11 16
662 15.425668508961568 -13.59731996026242 95.918411393245236 253 255 252 1.6732241549329789 14 180 9 79 13 136
480 -41.872970895984444 -13.195811211470494 102.49762227182715 130 130 126 1.9550032529692281 12 489 9 738 6 453
2163 42.40096008850162 15.413431817880497 65.485806158864349 96 79 63 1.1677507964881397 9 845 7 498 8 749 13 783
670 15.254811579049962 7.3002673281781849 53.2830119916241 2 2 3 1.6128242430989264 14 141 13 288 9 304
488 -52.387861529137467 -21.64498998390518 153.12703509759905 6 8 5 0.38035999345579868 14 481 12 504 9 342 6 440 1 421
1197 -3.4907791194080389 4.7668932864893998 14.180851328680999 240 242 239 1.2816216778346039 10 18 1 32
519 0.64071296167675962 2.0475470006773882 15.687646748526976 12 13 15 1.9162925261576897 14 750 9 1153 6 639 12 586
2012 -5.0498971286279675 5.2152449089833821 11.890784060712743 54 138 129 0.55910413258978087 2 837 4 675 3 895
664 -0.62066671890471348 2.7943426482192857 15.079056500184016 36 36 29 1.3317438834491115 14 140 9 96 8 109
2160 42.831071669416509 4.2504108663966962 74.956071358918635 30 29 29 0.86684631497996534 9 869 7 472 8 517
667 28.490473398037466 -9.3505291238624775 113.52217392947425 36 53 63 1.4284273098781668 14 71 9 107 13 110
2168 46.936140186031437 15.809490747090891 77.298899114041291 6 3 0 1.9494176813522257 9 795 7 521 13 754 8 449
675 19.021685236431352 4.2059583570165602 61.049824729495299 1 1 0 0.77636961569723795 14 158 13 261 9 166
1384 -5.1020148314444347 3.9025218664716501 15.014620344763681 121 128 120 1.3067679644477483 9 596 11 676 13 411
676 -8.6843655784630158 4.9251769083623742 10.238254869779166 61 104 62 2.0904586621098113 5 250 9 181 6 292 10 257 11 157 1 290 12 301 2 185 4 207
533 -14.327114933563189 8.6072067016443015 66.941917640139991 121 127 123 0.83712418721581772 14 888 12 668
2026 -7.5711752119636584 3.8461171898602351 13.089762688157705 43 101 73 0.46476187564594196 5 865 14 916 12 941 6 752 10 922 11 712 4 419 2 600 3 596 7 839 8 867
608 -9.1417928001433975 4.6861969178386556 9.8810542045755074 59 36 10 2.283518981749094 14 1247 12 1180 11 224
678 22.558904645714655 8.0204223485929731 72.4065886445578 74 95 38 0.8866469447307247 14 195 9 186 13 170
1387 0.72083675242496192 2.1835689284296502 14.960031912409407 124 124 124 0.5642806089819119 5 855 11 715 2 628 4 691 3 772
1411 -2.6286080527804798 4.2331574218217316 14.412542827043234 56 64 56 0.04458040073452553 10 901 11 836
2005 -7.0949765782608676 3.3792778651677318 13.354453398831144 55 151 145 0.33996758736106042 3 814 8 1032 7 797
512 -61.792094307322841 -18.042626368211767 152.51045232641124 84 62 48 0.19154459541609301 14 526 12 550 9 343 6 533 1 473
2197 -7.7293448499261483 1.9830051691456978 11.972145158668924 27 22 6 1.423177744584873 3 767 15 954 8 856 13 950
2173 -8.1599123695862605 1.2405023714525618 10.791253321246959 62 24 31 0.54088183670290302 12 242 7 571
680 -3.5569850190585055 5.8934563538431393 16.744212132244446 186 189 186 2.3561865225782253 9 193 4 591 2 383
628 -71.10041763273064 -10.429313118799055 159.23084408518875 84 85 80 0.64076031076383 14 143 12 195 6 203 10 105 1 178
1863 1.8668081917293529 4.9686178562284269 15.524775742924975 245 247 244 0.80075056128307365 4 60 2 68 3 68
370 -11.907796043145009 -2.0694760052105186 133.5586170635913 65 63 51 0.42260494126024162 14 69 12 73 9 66 8 70 13 73
707 26.697399404108573 -13.535597980817826 98.149811818779639 255 255 253 0.78854671310945734 14 472 9 352 13 445
619 -0.99669886631008753 4.0194113303614278 3.0558311777176712 70 70 68 2.1398105886576468 14 484 12 90
1155 -5.141821166017162 3.5183618801425376 15.693052936454908 84 69 50 0.60412273917984183 9 294 10 821
2009 -7.7209589595335109 0.64724383861994661 11.971395876090657 191 121 32 0.17158144941309694 12 490 3 850
516 0.71875768749640279 1.6048402890061895 15.799760719971585 215 217 214 0.94066358198246203 14 537 12 567 9 399 13 482
708 -8.6365854739934935 2.5128548295502728 10.724515548476925 20 15 11 0.93943622214568157 14 554 15 364 9 358 2 266
2201 47.039504708805531 8.8176317029019291 74.680997329530484 3 0 0 0.28759375822677791 9 1287 7 724
698 -0.42156454892347622 3.6035534775022309 14.729291300880138 17 20 9 1.1076643073599772 14 464 9 301 6 301 1 280 10 368 7 209 13 290 8 284
1872 -5.0475407874366729 1.7527482093791524 14.43885268880619 50 38 38 0.83291169215262706 4 131 2 646
379 -11.058096571364699 12.712418929188768 19.690848374780376 3 24 42 0.50902173476878787 14 89 12 96 9 114 6 98
1400 -7.6272807205178728 3.7348186665432919 13.024178567876865 22 97 87 0.69634969344991293 6 877 11 781 2 668 3 651
796 -12.119420391709863 9.6390113529003933 100.47278134789295 44 48 56 1.5184999660386165 12 1064 9 876 6 650 8 649 13 685
2122 -17.450614848250027 14.852408430402331 103.38671107327281 9 1 1 0.65213804760417371 5 680 9 468 7 289 12 730 8 377
629 -48.849150059479179 -12.124719598108218 146.81866284744319 146 150 145 0.28035928315217407 14 351 12 382 9 351 6 395 1 399
701 29.535652520826869 -13.250404452832628 111.11643334325332 67 69 66 1.0447004644453357 14 434 9 315 13 330 8 316
1410 0.55433394993123064 4.5074325867306335 15.769472485289851 76 67 52 0.15988895287878491 5 704 11 832
1156 -64.946556172330787 -10.744046347588887 143.47636597801019 102 95 87 0.10935069713139788 14 1009 10 833
699 -5.587019542059779 8.274778764412698 47.318644111911411 26 39 31 0.85854199381212992 14 276 9 303
1865 -3.2016566702929357 0.98553716188157259 13.674164343873176 37 39 37 0.111346934053425 4 11 2 82
372 13.442527077606423 -10.092580770101321 136.27150067877875 50 60 72 1.2584104980360482 14 72 12 79 9 65 13 74 8 72
2202 -2.0914685448528232 5.2769051663907893 14.695887317462361 151 158 151 0.97153398185252138 3 535 5 509 7 737
709 -2.3277403040392999 3.3225510773536304 120.21076224061386 198 200 196 0.33395501832903446 14 458 9 360 8 602 7 437 13 358
504 11.557979221377002 -15.891054321055698 195.4333752097254 217 219 216 1.4506181403586185 14 353 12 532 9 330 13 335
2189 -6.1781538130310425 5.1261772975288933 18.694539383984925 37 36 31 2.3185926893856728 10 369 7 678
541 -7.5479645614594624 4.4012477952446769 12.147974407438308 45 165 154 2.3393524310359184 12 701 6 283 4 385 14 449 8 563 15 741
2034 -6.427064734374123 5.5461954479555153 13.619035427431266 49 121 114 1.7394966725235264 4 209 3 199 14 393 5 576 6 718 11 673
616 -55.966444800219811 -28.600986632279536 161.39901893440668 84 85 77 0.072731130054194154 9 977 6 931
686 -7.4372474963458064 3.0328047830489151 12.693106628362555 23 131 123 2.3581059977965064 14 292 9 232 10 396 11 305 8 353 7 318
627 -11.595125128939822 -12.530565707940513 132.03646592817492 96 96 88 0.59353484272451129 14 172 12 192 9 154 13 106
635 -15.280671856258053 8.0938101331029149 61.899577152749238 55 64 59 0.52380566603293555 14 303 12 463
2128 39.391164761059876 11.617081851600352 70.909205206109505 1 1 0 0.44222390941061268 9 408 7 324 8 335 13 419
1 -8.854474390628285 3.0750258078043 10.380898074401411 18 19 21 1.4343251637221279 14 22 5 21 15 30 12 28 6 30 11 17 10 33 1 42 4 28 2 25
694 -4.9738735936129848 5.2196526701401247 15.76575101110428 52 70 56 1.4928424360834085 9 263 4 280 8 74 13 177
