# 3D point list with one line of data per point:
#   POINT3D_ID, X, Y, Z, R, G, B, ERROR, TRACK[] as (IMAGE_ID, POINT2D_IDX)
# Number of points: 402, mean track length: 4.7018091079226449
205 22.535343107853951 -41.682470980393347 135.42318107319252 44 46 43 0.34281211697965924 14 1047 12 746 15 1124 9 985
206 16.136549240406783 -44.087360781635205 144.93067810797075 35 30 27 0.87470128503290911 14 1058 12 959 15 1125 9 982
1699 -43.94908240775527 -14.031736894286011 145.72357361946823 68 65 58 0.29757041883637847 14 600 7 424 3 564 9 583 13 722
207 -0.30520747693290695 3.4484499010027587 11.431976511977036 46 169 170 0.089837990083487945 14 1060 12 979
1700 1.0553962288752079 0.63297065360570626 14.614632832886052 193 201 203 0.16415600223131421 4 345 7 459
208 7.6169862255221492 1.0874806289656758 13.283580691788279 96 99 92 0.31516852305122101 14 1062 12 1033 15 1234 10 980 4 904 2 664 5 782 1 583 11 755 7 809 3 825 9 919 13 865
1701 19.453702509471853 12.472296678730197 118.25406645312317 23 14 5 0.96520026370418988 5 251 11 270 7 479 3 394
209 1.0788606881814653 -3.74487998813983 25.329340876409677 65 49 34 0.73336120111793446 14 1069 12 1088
1702 -32.236725215962409 15.468926387220126 60.470452086086091 113 89 64 0.37195750913184067 11 470 7 495 3 458 13 604
210 28.524023717482866 -28.567313805993219 127.37156452435759 100 100 98 0.26930661691822055 14 1076 12 921 9 976
211 33.012065082743753 -37.576442908733789 165.17392246757277 109 109 107 0.8971336415299116 14 1077 12 970 13 901
1704 4.6215997541127516 3.8160849163700719 14.089726747119617 219 224 218 2.0385628586322011 10 566 11 649 7 501 3 372 13 594
212 80.919247392588247 -30.078054757921993 120.99302227275423 64 64 64 0.66280477538764471 14 1079 12 547 15 591 10 537 6 450
1705 1.2474747777927888 2.4519223408410129 14.858539822781729 7 0 0 2.1312754682923769 1 358 7 506 2 283 3 676 5 479
213 24.8499370644865 -36.06364707803877 129.10303631133343 79 76 71 0.33212232422942956 14 1089 12 966 9 1088
1706 0.39399505135774815 2.5664533608043252 14.231027777269709 0 0 0 1.3640180500128656 1 177 7 516
214 4.0004544587590489 4.5077391713994599 10.358304250662332 187 198 194 1.166412226837173 14 1102 12 993 15 1170 10 929 6 1025 9 1132 13 1047
1707 4.92969232356793 2.5638492161943369 13.43632623231362 125 130 126 0.095077297534009411 5 418 7 518
215 -2.6956966890787406 4.5312229921111857 9.1599660689203084 159 159 158 1.1876814590914735 14 1106 12 1110 11 922
1708 1.6496402670427879 3.1737589892424376 3.4744163295525503 142 143 137 0.61086929058552131 12 951 7 529
216 -0.35457008665858664 3.3757350293280872 11.435561040090747 49 128 97 0.60342733492599088 14 1107 12 984 15 1150 10 917 6 907 4 837 8 916 5 851 11 913 9 1164 13 1041
1709 3.2496993247985699 4.464145026780348 11.103559578855259 21 103 103 1.0750726015866376 14 1098 7 537 13 770
217 -0.40284763814232372 3.4499599397487786 11.431355052078837 44 162 166 0.57051091539878729 14 1115 12 978 15 1147 6 906 4 956 8 818 5 728 9 826
1710 -35.92396002095731 -3.0552552276098215 130.47479497274537 20 12 7 0.87327283332239847 11 378 14 355 7 545 3 291
218 -0.74617006084597259 3.5919144372911052 11.513517444727938 43 126 105 0.25143608042510623 14 1127 12 798 15 1137 10 789 6 903 4 832 8 841 2 611 5 729 1 514 11 817 9 1013 13 967
1711 0.43096207634047423 1.7737128233907835 12.339332362947227 84 201 194 1.0228900851587739 14 349 7 547 9 335
219 8.1683726698135395 3.7103286715607835 12.702992605321814 110 129 97 0.55538884310423908 14 1128 12 982 15 1131 10 884 6 898 4 850 8 718 2 625 5 717 1 533 11 826 7 828 3 669 9 967 13 964
1712 0.19228577699611632 3.0071643918916506 11.797754444160216 49 162 147 0.20748466236413035 11 537 7 548 13 537
220 5.0559350382034731 2.3711701159734568 13.414003479286466 101 106 104 0.30598751535473073 14 1137 12 1135 10 1036 6 926 8 876 11 700 4 798 5 760 3 794 13 811
1713 -35.690981368483882 16.108588549905974 55.509538145099256 141 108 77 0.72407841457514821 11 480 7 560 3 462 9 652
221 -0.2884730112611637 2.506686972142834 11.353520855500387 50 116 100 0.4239984012968594 14 1146 12 1009 15 1204 10 950 4 983 2 702 11 915 7 981 9 1144 13 1070
1714 0.15478344503954469 3.5657488440958125 11.865383297359307 109 183 149 0.81534174186209152 5 725 7 562 13 597
222 -0.10749180860745013 2.3135818864729791 11.371817216124214 43 129 84 0.24557937167740515 14 1152 12 935 15 1066 10 945 6 824 4 831 8 821 2 622 5 736 1 531 11 807 7 864 9 737 13 986
1715 0.23429766894645826 3.7751793425592006 11.942233298081183 57 120 103 0.84542073924616401 11 509 7 570 3 359
223 -0.52246579698029028 3.1726672974177226 11.397548395643446 31 139 116 0.3388645013376233 14 1161 12 1023 15 1012 10 767 6 908 4 835 8 812 2 615 5 723 1 521 11 822 7 670 9 903 13 947
1716 -0.19803241614108305 2.7668085926107628 13.38397931285534 67 144 92 0.60154391994023082 14 227 7 577
224 1.4662746759737473 1.0632542711248967 14.429208521934649 62 71 70 0.8901172721258952 14 1184 12 1052 9 1070
1717 0.56631677363468602 2.1220513578221523 14.385939741700939 20 22 21 2.0624605653676014 1 166 11 578 7 604 9 741 13 880
225 59.369724308616235 -23.60590133409611 129.29484460715372 126 106 64 0.21598667753628081 14 1202 12 1057 15 1245 10 908 6 879
1718 -45.02802114504869 -7.01774206637866 170.80502791210111 109 107 95 0.76312652373931955 11 407 14 1261 7 629
226 55.818685364057799 -39.416280726936094 121.63724892171469 104 101 101 0.69775364969343523 14 1204 12 1086 15 1305
1719 -19.440706032866853 -20.790135295066197 149.31294998609374 59 56 49 0.39107213302340527 14 867 15 610 7 637 3 757 13 728
227 22.848383350173833 -51.045184443044405 151.61477367208334 81 82 79 0.58648390669189165 14 1205 12 1073
1720 -24.489208013696938 -23.06655841930209 142.07750403128179 26 25 23 0.2086828884606112 14 857 7 638 15 787 9 911 13 730
228 47.003583115771804 -25.809467887891298 131.27954030516469 126 127 130 0.79414067641665087 14 1211 12 1035 15 1113 10 973 6 968 3 750 9 929
1721 -41.65641814876826 -21.422703505745098 115.72710463612185 49 46 39 0.18013222812956525 14 863 7 639 9 787 13 731
229 46.945989785549948 -23.083209354886542 128.58211148323556 100 102 101 0.83342192658721348 14 1216 12 914 15 1238 10 907 6 930 3 829 9 1104
1722 24.503910452059458 9.8550401406862971 125.34288053978173 139 143 137 0.24293667957239706 8 634 11 640 7 646
230 8.136752686796294 1.0274641351363676 12.824511502049411 18 18 7 0.66729833741394218 14 1230 12 923 15 1046 10 851 6 825 4 599 8 557 2 584 5 485 1 387 11 756 7 811 3 713 9 912
1723 -1.7060173398530063 8.5047770218483496 122.48592727999494 35 33 28 0.38568004801528949 11 639 15 1017 7 647 3 732
231 -2.7676695918799243 5.6968426563308991 9.2091776597542392 124 125 120 0.036085043668100551 14 1254 12 974 15 1174
1724 -5.2841488155396155 1.1604972724286142 111.67903772350472 53 39 28 0.63053017509429388 8 595 15 626 7 664
233 -0.93449571508956486 2.8077168485694077 11.504777653934806 88 132 66 0.66765939008419517 14 1275 12 1143 15 1333 10 1043 6 1021 4 988
234 6.7625305818300436 5.2127359664285642 13.809234516339144 185 187 184 0.31657539667104562 14 5 15 1
1727 -30.545136393001677 14.648480768107516 46.062361651238589 119 120 118 0.42365200999143982 11 648 7 701 3 777 9 841
235 0.15137048893269758 2.7781022797646528 4.7985892142291444 50 69 63 1.6411378465105511 14 12 15 3
1728 -33.694770443885872 15.469359375152104 54.656693078049294 136 103 70 0.27517554012044237 11 714 7 707 9 843
236 12.273687511897457 -25.63001159374641 93.453956586033513 125 125 120 0.44091154456671466 12 13 14 4 15 5
238 52.108205255853001 -27.637005211759039 77.380323752536285 221 223 220 2.2411722467103092 12 15 15 14 10 12
1731 1.4521499550856616 1.107279110640065 14.670991127087081 76 76 75 0.18023224124869319 11 864 7 770
239 7.6473091585832895 2.2762428093530924 13.125676617594523 1 3 0 1.9210362742708238 14 29 15 21 4 44 6 20 2 15 5 20 7 22 3 19
1732 0.69576493713027532 2.4032395524845742 13.921892463203976 18 20 19 0.15636980785118804 11 698 7 774 9 726 13 953
241 36.513564552896206 -5.1949660520879366 94.253418639216235 161 163 160 1.5101917066153849 14 28 6 22 15 23
1734 7.6313839058636477 -7.8813382500919937 144.49969920226491 103 102 98 0.68641817245414538 4 569 7 791 3 716
243 8.1620066815034829 4.3391018608874461 13.171020944818407 38 67 29 0.90552211505879976 12 24 14 18 15 34 10 26
1736 -23.612354958913674 -15.640486679310069 140.10379560102126 101 98 93 0.21971176392820208 14 787 15 572 7 794 13 727
244 4.2042453949769518 4.3752539648430169 14.045216274372754 249 249 247 0.8910879482065921 12 57 15 39 9 20
1737 8.3159683799028024 1.038635995156062 12.612885230968756 9 7 0 0.16949803002447442 11 757 7 810 9 922
1738 -31.75565131658356 16.328640957333601 52.64941278840783 117 98 83 0.69489689505275787 11 651 7 825 3 776 9 1001
246 36.171436398983367 0.71965897917764876 90.954569998068209 2 1 0 1.7980486846232679 12 31 14 31 15 43
1739 6.425030810525814 4.0931607960554839 13.503139897166204 26 28 25 1.1219828562950618 11 911 7 832 3 893 9 1174 13 960
249 9.0493621406678226 4.5796047936207085 11.235140092779529 209 210 208 2.1073590705446645 12 111 15 63 10 65
1742 0.59572547696848821 2.7370110313529357 14.40553543512311 28 30 27 2.0038358921223112 1 438 7 870 13 981 9 1034
250 -1.8045637547201563 5.9431191107433232 8.9070867218655483 154 153 149 0.96259448761162125 14 51 15 69 9 91 13 167 7 109
1743 5.0205386647452848 5.1322700950645963 7.2969861890710801 94 96 91 0.62309220875699634 14 1253 7 876 9 1004 13 1049
251 0.10076483832924063 3.290356320590091 12.107752871537965 38 179 173 1.4847088626237852 14 62 15 72
1744 8.4351398432568274 4.1136668244025927 12.363572328329711 51 70 50 0.46263341641004041 14 1093 7 880
252 1.3108215480254877 0.64637654105808084 14.513482099785426 206 212 212 0.62645604209661598 12 65 14 101 15 78 10 50
1752 3.5631280966681844 -5.8349930384766502 35.636634451304118 65 61 58 2.2619871539340495 15 1274 7 912
260 7.3957595312689621 4.3531024426037357 13.994864864462741 233 235 232 1.5436769938563151 12 78 14 90 15 103 9 147
1753 -41.434867776738116 -6.7216649953932111 123.72542070795684 113 113 108 0.50754599269395428 14 1036 7 921
261 0.75253883399933374 8.3688999938774913 16.096222512679159 62 64 61 0.29655349066030412 12 62 15 104
1754 4.5563754990083618 2.9915548042397524 134.38526829922699 52 41 39 0.3637420938031839 8 780 7 930 4 932 13 626
262 6.1632387918529217 3.9462913922591856 14.090793500531895 0 1 0 2.5974004713903653 14 204 15 106
1755 6.5575509314913925 3.5627117601617164 13.584325719921598 90 92 89 0.5399536356940523 11 907 7 937 3 885
263 8.5562979805640449 1.5436314189633735 12.345676289724608 147 145 103 0.1733309841894651 14 141 15 124 10 199 12 197 4 106 6 129 8 134 2 66 5 91 1 87 11 70
1756 3.4988758140166327 4.4489173236008064 13.849211854371715 98 20 30 1.1966261820132615 11 917 14 750 7 944 9 1120 13 958
265 0.83052282020682955 0.068820521417167629 14.729540738286833 232 236 237 0.34385760789293768 14 111 15 130 9 118
1758 4.9730859239042058 2.4527727161557462 13.400038499250462 64 70 66 0.29208615468802201 11 852 7 962 13 979
268 8.7688749874929499 2.9041068945619459 12.020429677096935 161 190 146 0.48994753661040708 12 185 15 141 10 191 6 193 14 86 4 135 8 130 2 78 5 82 1 67 11 101
1761 7.6339490998908728 2.991826596080851 13.374369871612844 59 75 58 1.4054756857098438 11 944 7 980 13 987 13 1075 9 1141
269 8.7687112968883287 10.744087596771719 15.787359370029733 65 67 64 1.8964092252599494 12 291 15 142
270 12.357979968349623 11.504195781518522 17.43957759123268 71 73 70 0.40154673401718066 12 200 15 143
1764 5.0309738069113532 3.3738953374077281 13.316816515634541 37 47 39 2.202293852962431 4 744 8 824 5 627 1 400 2 11 11 644 7 667 7 677 4 743 8 725 1 501 11 655
272 -1.7484703772742329 5.8041399476089257 8.8672158805497681 154 152 150 0.30225597439878871 14 132 15 147
1765 2.9001009003481473 3.7744479564447855 14.328766336364824 127 134 126 2.1170801642474073 2 536 5 399 1 403 7 338 2 344 5 400 11 315 13 384
273 8.9391262171801369 3.2336214110828494 11.788087722406992 14 24 13 0.71063335748543843 12 107 15 149 10 136 6 140 14 94 4 124 8 101 2 61 5 73 1 58
1766 -2.662946714835857 5.6931693998462691 9.1822656282993602 82 80 71 1.6191789569072506 8 668 2 499 7 807 14 491 12 289 15 366 4 534 9 642
274 24.84503147592158 6.6292412021389868 79.894305443285702 61 81 72 0.0024156656475188684 14 145 15 157
1767 4.7341950146687353 3.0965885219371643 13.419510051615486 56 75 64 0.42604817069959378 2 173 5 217 1 159 8 237 11 218
275 8.4039594546082768 2.2490229352609701 12.526356489506409 2 6 5 0.26957942829573528 12 306 14 223 15 169 10 300 6 196 4 196 8 192 2 99 5 136 1 105 11 96 3 123
1768 4.3961400254033727 2.6958292659151226 15.990994711412441 129 116 101 1.4694034298314365 11 21 7 41
276 0.45589290175384584 0.20431340773857554 14.675934435886624 81 83 69 1.2917890522742832 12 165 14 166 15 171 10 247
1769 1.037985651054588 4.0765660899353326 14.53019366108747 137 134 125 0.34879081392157174 1 408 7 167
278 59.979750338256707 -17.699853656814149 135.90712431768722 121 122 117 0.3082781327147191 12 160 14 169 15 175 10 157 6 161
1771 6.2123983630687958 4.4332695309353376 13.446344953021439 146 148 145 0.52624303252076843 2 478 6 581 8 498 11 678 7 696 3 662 4 564 9 690 14 749
293 4.8845140057808303 4.5134968133028064 13.897314868947776 63 5 8 0.59293093992958801 14 139 15 212 10 186
1786 6.0670091553554437 -43.020688294457294 138.82502533621741 33 35 32 0.43081104942117665 14 580 3 64 15 556 9 50 9 530
295 1.1863779006262494 3.8968744926337462 8.0043582884078255 61 156 143 0.2149292878096693 12 215 15 218
1788 -0.79041076596131388 4.4590452027336935 11.920109562782828 41 177 177 1.4885760504785341 7 83 3 75 9 199 15 64 13 135
296 1.7572579900776382 4.4747248202220424 11.225920067568492 8 84 75 1.3945327567065571 14 136 15 219 10 122 12 284 6 87 8 94 2 56 5 78 1 62 11 72 7 82 9 287
297 3.7748423077777562 4.4842856167241418 10.446410103100895 7 73 68 0.69609767091547459 14 135 15 220 10 124 12 112 6 89 4 91 8 73 7 81 9 126
1790 -30.872925790776918 6.3586077949653124 65.311661062234108 176 178 175 1.1040929503256434 7 68 11 66 3 82
298 11.108876282280541 9.8476011945924053 17.898318359622039 52 54 47 0.91255279055757077 14 218 15 223
1791 7.3942654690736873 2.8002674361516706 19.023485177558701 0 2 2 2.1353119380904304 7 21 3 84
300 46.715817287733955 5.6794567480597147 105.26724205849735 36 56 47 0.82195173759377271 15 236 6 66 4 49 8 61
1793 -6.4513916605728117 -25.067628712595134 141.78534633454163 129 133 131 0.38674056776925508 14 96 3 92 15 86 9 96 13 71
301 7.68136631390158 3.2237619727233899 13.25369496865726 22 31 24 0.88496874327147312 14 146 15 238 9 145
1794 15.952152843193963 -27.148006554934547 149.92204396697275 153 155 152 0.30678419889650499 14 89 3 93 9 54
303 8.2208344823006456 1.6938787044166619 12.546380254986619 1 1 3 0.69705797802960123 12 229 14 350 15 268 10 295 4 226
1796 -8.9586441473636746 -31.384831272645918 137.17149639036347 141 126 9 0.34033612460645973 14 76 3 95 9 72 13 67
310 19.49512193466806 -30.293527634130925 127.32349953481837 75 48 24 0.45577123236036499 12 251 14 299 15 288 3 282 9 264
1803 0.80594188497144348 0.074807803611513971 14.834803659144503 233 243 249 0.85427541970020127 2 96 7 147 3 137 13 95
315 7.7006586318170447 2.6462953993528915 13.179850146688057 3 8 1 0.46415193499681678 14 371 15 331 9 310 11 253
1808 -9.0461164941030354 -35.913131689140236 139.02619509488156 41 36 28 0.23713037340161314 14 118 3 151 9 142 13 92
316 -0.95353818809093871 2.7086883136985556 11.535833470367143 113 178 139 0.021449396999903912 14 513 15 332
1809 -30.410380552903387 -41.805670075964557 153.74287374093927 106 108 105 0.53242778510566502 14 74 3 152 9 74 13 66
317 8.635691050757373 2.6655598452572939 12.182791937870419 24 42 24 0.65346228049753818 14 226 15 333 6 300 10 310 4 291 2 132 5 229 1 109 11 153
319 29.056449943998061 4.4929019705809239 64.213842878750711 74 100 89 0.5504192441823772 12 304 15 342
1812 -31.450954168060221 8.628818544247558 58.474594358720154 88 68 49 1.8493633080487657 7 271 11 236 3 172 9 205 9 671 13 184
323 11.143313518936626 11.787813106622094 17.707145061938981 119 118 113 1.1967352699959573 12 443 10 392
1816 -29.791098014866627 -43.598097183724278 133.74525509311761 114 116 113 0.43210199084819062 14 87 3 191 9 152
325 1.5332588869734725 4.4112738144425068 11.276764093152714 227 228 227 0.020560388961868684 14 496 15 370
1818 27.880793387063974 -33.932071927451254 125.04197703188794 68 69 63 0.15893404609762102 14 192 15 192 3 195 9 182
334 47.347952444748245 -37.346985399825414 112.09729917473054 192 194 191 1.3842543378418661 12 146 14 577 15 399 10 155
1827 -41.818098828860194 -41.095389439055623 146.38708659006741 16 18 17 0.23047392226897487 14 122 3 220 9 181
335 -0.21882004938883085 3.5801213265775611 11.662534580699951 37 181 159 1.1194544658647183 14 327 15 407 9 273
1828 2.4930357334743518 -27.849531670394448 135.22159515071928 60 62 59 0.55509636543478935 14 197 15 199 3 221 9 177 13 163
875 5.4916828259866159 2.5253847004007279 15.136510062111567 76 77 68 1.2523367231802554 14 689 4 734
878 0.041000928334100559 1.9090608434619036 11.516309993733028 23 135 131 1.8410082795424239 6 601 4 762 2 534 1 459 7 728
879 86.382535252004288 13.078194556852862 69.292977523331032 104 74 44 0.55709208409387412 6 781 10 958 4 764
881 5.3478745942938311 2.7187290939077307 13.604352006940731 95 101 97 1.1764174109792949 14 943 11 849
882 90.690606200858156 -3.7548499574601442 72.296758212880562 98 100 99 0.40727679559479552 6 829 12 1123 4 821
883 43.177572743506033 3.2004536666341221 109.98223035579444 35 36 30 0.17113276399517152 6 835 12 1142 4 826 8 778 11 608
884 54.826065323182434 4.0771991046957412 90.438326502761271 77 77 75 0.072114866161122573 6 843 10 874 4 828 8 776
885 86.327968255265205 3.8538216953036173 81.141058251535071 104 81 48 0.31469591660075524 15 1183 4 830 8 775
887 3.2063651994339106 3.3513950811630169 13.897928657634992 37 42 33 1.6004384360843549 6 896 4 855 8 714 2 544 1 537 5 12 8 727 11 665 7 683
888 5.4883209183948951 3.4834746027208898 13.341887438377436 62 73 61 0.64358121182500161 4 857 7 949 13 748
889 4.3934500958232805 3.4278603613124408 16.563993864710049 45 65 53 1.6744202183850445 14 249 2 42
890 5.9110708445283464 3.0351239735905264 14.678865083687615 67 75 70 2.2927042853527033 14 501 4 877
891 7.5927917758517864 1.1505421509483271 13.322539206462727 11 9 2 0.51263315107160068 14 1061 4 902 8 929 2 671 5 640 1 581 11 866 3 826 9 1068
893 6.2997959130277605 17.099243662195072 112.01638229502814 146 131 115 1.0091508786882375 12 1109 4 914 5 707
894 8.8439575767979193 2.0044127017349043 12.035354450870635 9 10 5 0.37207436329999349 6 1029 14 1027 4 921 8 937 2 645 5 781 1 447
895 89.598335958678092 -4.2354528116596235 87.551015896621209 103 105 102 1.3338127785110838 15 814 4 930 8 616
896 56.137675059028666 4.8716739096574884 93.285883792740293 120 120 118 0.25036270626094204 6 945 10 1047 4 936 8 783 5 683
897 16.992233400241574 10.208347396060823 126.24950985442931 39 32 25 0.48213376395350299 6 949 12 971 4 943 13 1066
898 -1.7146935177672349 5.5887314267187271 8.9102553241360596 125 126 120 1.4929466879071807 12 825 4 944 8 922
899 4.9679956087091037 4.6278172473946082 10.364030818211702 129 134 130 1.1562370323018329 6 900 12 990 4 950
900 7.3405789499882772 6.9296207902807572 5.9492061906588791 125 126 121 0.55225576364856899 12 689 4 962
901 -2.5917083829864649 2.5908482254325871 4.9214563910951927 108 109 104 0.077942460003248393 15 627 4 963
902 87.174771503974455 5.5150842574690708 83.948463967940043 139 130 119 0.18273559481775539 15 1217 4 965 8 805
903 -0.062416955246408556 2.561319309352041 11.423122257056331 48 133 136 0.32672864037132171 6 1012 4 984
904 8.2980526758771322 0.93554167391778509 12.64578239436481 124 125 89 0.47223667969849958 14 1228 4 991 8 947 2 738 5 855 1 489 11 744 7 897 9 1067
905 9.0002535470352214 1.3030534888266709 11.89580113953622 148 148 127 0.29428606686738984 10 696 12 727 6 688 4 622 14 612 15 818 8 590 2 421 5 478 1 344
906 35.176391472928181 2.054792635078055 69.139761022270008 17 18 13 1.9345324729618438 15 179 4 20 8 28
907 16.124862408703578 2.5674891168745235 16.427014137799439 87 59 27 2.2181848444637033 6 26 4 22
909 2.9883578687199868 3.083599184733282 14.192226379107035 47 63 53 0.24053512311940389 6 313 4 294
911 -1.4780546039537799 4.1961028709749062 9.5771537833059526 226 228 225 0.69182087896905187 4 1 8 1
912 -0.47011854122704272 4.4572863401770517 12.298281328066741 29 131 118 1.7593470151989894 4 6 8 13 2 9 5 11 1 10 11 28 7 15
913 0.29286608155184274 1.3971106095575028 13.814355177108576 8 10 4 0.9039561120119064 4 13 8 18
914 3.4985035053915206 4.4442262346862371 12.240079341561767 229 231 228 1.8693317464447103 8 19 2 10 5 17 1 11
915 -0.94039829131062125 1.3369483156010025 13.250040474111524 34 34 32 1.7345291105866025 4 55 8 25
916 8.3242529363385227 8.6599190019001338 39.503729470570789 38 40 37 1.6236259730524076 4 35 8 34
917 7.8665609615687782 4.3149934006394881 13.234239512136014 35 60 28 0.56372619884558162 4 23 8 38 2 19 5 21 1 24 11 14 7 10
918 1.1353929107339111 4.5096279336171659 14.654767274567369 19 19 15 2.1032952608232409 4 61 8 42 5 37 7 48 13 117
921 54.408791247051262 2.2519105636108594 85.400301497411746 0 0 1 1.3755627069134795 4 73 6 76 8 63
922 4.2264266108162145 2.7250124013530432 14.079948496195319 243 245 242 1.3524832884117393 4 97 2 22 5 31 3 81
923 10.722098126141104 4.6100380955530911 13.13722410008446 227 230 223 0.81143277698461247 8 76 2 28 1 25
924 92.336740233934577 -1.0653047401336717 145.55999551611535 91 93 88 1.8316561720472264 4 145 6 113 10 200 8 88 12 425
925 5.7874875500161451 3.8711120070342413 13.385624006382249 230 232 229 1.7232227777916476 4 94 8 100 2 36 5 49 1 38 11 35 13 42
930 4.8196232915750983 4.7587925486472615 13.174293645982219 218 215 212 0.57110483680783231 4 128 8 126 2 84 5 104 1 72 11 108 7 111 3 111
931 0.76744187153870747 0.26147369004460796 9.6796541489626193 176 163 137 2.7404888173423343 15 1220 8 128
932 4.740056406538292 3.2599665845218069 14.268650329739637 28 42 29 1.5642777519762092 8 129 2 90 5 94 1 82 3 248
934 -1.5194138810377698 5.902140608801524 9.004195926639877 31 28 23 1.8919731148732053 8 142 2 88 1 78 4 133
935 -5.6004780459532455 9.5912548751512947 92.261057214426714 211 148 21 0.48989117788848896 15 227 8 145 3 207
936 -7.8571163801769996 10.614489214252412 87.77792457434262 239 174 26 0.28438300095159469 15 209 8 150 2 113 5 119 7 260 3 242
937 -6.2849966479502637 7.130247306470431 98.350162689574816 97 64 35 0.69200311366143374 15 240 8 157 7 135 3 239
938 -4.5596150600024252 4.0229401909429683 91.008887469733523 0 7 5 0.20295967800952527 15 339 8 158 11 209 7 233 3 377 9 298 13 293
939 33.713703716776777 6.9773974258674665 145.03784432680746 108 97 70 0.66969102506371303 10 193 8 159 11 132 7 138 3 197
940 -2.3163709420833909 3.5167369357241305 108.61569978780835 1 1 3 1.2159091349401767 8 160 7 231 11 208 3 391 13 346
941 -4.1394339975877745 2.3233176551431165 110.97449740658138 107 70 45 1.2626301084355611 15 330 8 161 11 207 7 327 3 535 9 533 13 350
942 106.21253404153096 2.5695435781511988 111.07958941407225 42 44 41 0.13259213568752293 4 162 15 231 8 162
943 58.887321215831669 -0.20094221857276828 102.05322344439725 118 119 115 0.87004084073791521 4 164 6 171 8 165
947 7.9775381689963556 4.5942332878904262 9.4387774810801286 202 203 198 0.33098691523844015 4 267 8 172 2 86
948 -1.0310747686135071 3.8619524451299081 11.855179110572699 25 84 66 1.2172614540268361 4 120 8 174 2 258 1 204
949 4.1365922930794836 4.6829372839008006 13.821808697875623 167 169 166 1.0290933543453515 4 180 8 177 2 76 5 102 1 71 11 105 7 112 3 158
950 -1.1468486563261548 2.2131875271600072 11.730461337803167 16 109 104 1.5186687677572728 8 184 2 182 5 137 1 163 11 255
951 5.1734825287184174 3.584182857678754 14.101615623992652 59 75 65 1.6567168305036175 4 187 8 185 1 12
952 1.4486674230457801 3.3115137129268439 14.61376539462182 32 27 17 0.62349473271815192 4 299 8 186
953 3.5515332682906777 4.0634646660013143 17.345546571423874 19 33 20 0.096487147502319792 14 459 8 189
954 41.806613255744331 8.573814812958199 106.91670088986176 13 14 8 0.23301229058608014 4 207 6 236 8 200 11 129
955 51.374959999209899 7.2225474328199653 84.12492978241913 196 198 195 0.84503424030608743 4 203 6 397 8 203 10 399 5 190
956 50.706909296192315 7.756608200440068 89.693212052794308 222 224 223 0.12962835264831296 4 205 6 396 8 204 5 189
958 99.913418811324291 0.2262701461194751 107.09018972866724 2 1 0 0.15361818362079668 4 333 15 340 8 223
959 -10.330063235426019 1.9082099867120923 112.33340956291607 87 57 29 0.7478613751782861 15 978 8 224 11 284 7 326 3 586 13 490
960 16.505809236791119 8.8534643440248253 124.42942305916101 1 0 0 0.52074289414904285 12 312 8 225 11 170 13 284
961 -8.3467957345137993 3.4143240696030275 91.760160312950035 223 153 23 0.33265059996168767 15 436 8 228 11 288 13 348
962 -7.1098380324457722 4.0745530522371656 92.566777533778605 0 1 3 0.28555520691596381 15 338 8 231 11 294 3 430 13 341
963 20.941070212218587 7.6309203257708003 123.66135013236726 5 4 0 0.43947437876293211 6 231 8 233 12 308 11 210 7 189 3 382
964 3.7691999451644835 3.6914515878545413 13.995697232316127 233 238 234 1.1853182447852595 4 304 8 242 2 282 5 295 1 217 7 168
965 3.7927298020104145 4.3789240611651463 14.040305786596564 217 221 216 0.80726996583332822 6 278 8 245 2 130 4 183
966 3.4395642756327329 4.6533778090704434 13.486913105471212 212 214 209 1.2613504272764564 4 264 8 247 2 127 5 143 1 119 11 106 7 126
968 0.73804559260472991 1.0808476185598872 14.274970457674389 0 1 0 1.5081397349339523 8 259 2 202 4 218 1 117 7 201 3 392 13 216
972 -1.398532196124771 1.9393736980015264 11.984263562474151 40 44 47 1.1918729634639851 8 272 2 348 5 313
973 -11.649916070557722 0.32711210568404248 111.06548720124272 91 80 74 0.25435348536486058 15 450 8 275 11 375 7 308 3 530 13 369
974 -5.6887393894450105 3.3447547847236905 90.42550615495243 214 152 30 0.38660172229471607 15 435 8 278 11 289 7 285 3 427 13 347
975 -0.97579202940292264 4.3914813625155427 89.906583481756982 237 173 64 0.42999911162949339 15 466 8 280 11 282 7 289 3 435 13 352
976 8.2494649521370125 3.3903979194596126 7.7350298608928059 234 52 51 0.13369704965879506 4 716 8 292
978 6.0833056353658312 4.5221138959694089 13.592049618158876 219 221 218 0.53165861099700185 4 563 8 299 5 180 11 327
979 -0.97262518674309328 2.7234517018537656 11.585632311615322 87 143 102 0.36697460054691339 4 504 8 300 2 399 5 296 1 285 11 314
980 45.445426809168325 10.516130013087411 85.608639954762495 0 1 0 0.69914485829455164 4 311 6 296 8 302 5 285
982 6.2998358586751042 3.2268741202704967 15.040974284696549 131 141 134 1.2789380410651852 14 651 8 331
983 57.14721116395382 14.819062611006501 106.03086084125898 124 117 103 0.89647258719406575 4 305 6 402 8 336 2 256 5 283
984 38.818668426450259 13.467188307541079 98.463855128820725 44 44 42 0.47472648003574891 4 429 6 590 8 340
986 4.7736835941202527 -0.61701505266043533 6.4808627584933713 11 8 3 2.9815869977385638 12 145 8 342
987 28.545291169423095 5.5127794871037334 136.64436534886056 122 119 115 1.3149685933500723 6 468 8 355 10 622 11 285 7 330 3 437
988 46.075600137913106 6.8443301302397739 107.61361263701798 133 121 107 0.10347550148064698 4 342 6 428 8 356 11 292
989 3.3168530111853038 4.3558194444948182 10.701599860538142 12 94 85 0.27117815932879291 4 566 8 361 2 261 5 303 1 201 11 329
990 8.4882563915716691 1.9648028286269006 12.468596287976798 42 43 38 1.865159574589798 6 608 14 406 8 363 5 315 1 575 14 1191 11 338 11 930
991 -9.1059085221562075 2.9620048892671145 105.63596025627768 49 26 11 1.1314456563243847 15 982 8 370 11 602 3 720 7 659
992 24.907354947679433 4.3081597611949354 131.26160695065792 140 140 138 0.9084689013042665 6 655 12 673 8 374 4 670 11 391 7 407 3 581
993 51.477209611662218 3.8149417890338371 114.35556028220861 90 65 43 0.174015417779152 4 583 6 660 8 375 11 419
994 41.221708506188016 3.6648901691618083 107.05183821089959 4 1 0 0.20725344922011324 4 479 6 661 12 897 8 376 11 357
995 50.840067874810359 3.359360136657624 90.104744616489214 178 175 173 0.17850655387398284 4 337 6 322 12 574 8 378
996 15.64798301476586 5.4437288681600293 126.51609174427455 0 1 0 0.19393917727763599 6 463 8 380
997 100.22805993121965 -1.2146232126155845 106.71819874575306 34 34 34 0.74259720089320458 4 640 15 1096 8 383
998 -10.447566394113997 11.138729665858335 88.39493114403885 15 0 0 0.46613925271401024 15 918 8 384 2 299 5 357
999 -11.514755420385207 -1.3495314084351087 113.56618879416222 10 10 2 0.86619874963368515 15 678 8 389 11 411 7 393 3 528 13 516
1000 -7.8247756797950814 0.086114552230169547 110.38396264089208 95 87 82 0.54696276508473396 15 672 8 394 11 401 7 389 3 590 13 417
1001 -10.677462820592392 0.24422364932395083 114.00948513124553 8 4 2 0.42500571907082818 15 670 8 396 11 414 3 531 13 520
1002 -5.8329034373295912 0.34682827722799581 112.9101823272245 136 123 117 0.28906848004486085 15 669 8 397 11 415 7 400 3 588 13 521
1003 54.640526121369881 1.3643810694486087 121.37738785567392 85 56 30 0.71059616543297432 4 472 6 474 12 566 8 400 11 377
1004 -12.884325593044277 2.1086533551856812 107.95099537163861 88 64 38 0.61920278963818687 15 1184 8 401 13 859 11 388
1005 -4.3408443069983722 10.023582485863969 90.571331617354645 104 63 0 0.7869088670455141 15 909 8 403 2 206 5 522 7 439
1006 45.198232606451427 11.515104944922054 110.86109977810003 107 107 107 0.14027849410978024 4 457 6 606 8 405 5 356 11 305
1007 86.266700437165781 12.177325925161581 84.032819033034244 88 63 35 0.51736254650052937 4 431 15 745 8 413
1008 0.81960780336563188 0.30943626503812061 14.66832756299968 202 203 207 0.63406078130134258 4 341 10 1030 8 416 2 303 5 345 1 237 11 628
1009 85.622561490854608 12.841113579251211 82.351687398116511 66 40 17 0.2333109931132086 4 623 15 755 8 417
1010 -11.475594009036847 10.993267199651044 90.151578286245197 139 85 0 0.52876447857391629 15 703 8 419 2 301 5 236
1011 54.393600915012911 4.3303496604778591 91.556387101099119 11 13 10 0.18524284650796996 4 485 6 456 8 423
1012 47.238656886180912 5.9736583136707395 91.57210465492625 44 46 35 0.17579495046677099 4 449 6 579 8 429
1013 23.298946853410879 8.3449274815845254 122.58421702346355 98 100 97 0.39760203949511636 6 475 8 434 12 649 11 399 7 463 3 690
1014 54.290516753936394 8.0243056931923107 106.69072930196687 1 1 1 0.57538674189300021 6 315 8 436
1015 51.11007581321266 6.6359713123613995 89.396952223489876 16 18 17 0.20548706084040561 6 685 12 881 8 437 5 358
1017 0.58628092119691 1.5275769718235337 13.863412024497428 98 104 102 0.54206397852411781 4 325 8 443 2 285 5 377 1 251 11 526 7 438 3 442 13 494
1022 0.10126702559514847 3.8494205884688819 11.834330707370837 40 109 103 0.44854396837015365 4 712 8 508 2 257 5 145 1 205
1024 5.7798344478383301 4.432520695216561 10.053353219060055 90 92 89 1.9194226271924468 4 579 8 514 7 952 7 552
1025 26.74353020906614 10.427571603610161 121.71200478545862 87 86 81 0.62915268905695465 10 633 8 518 5 364 11 448 7 473 3 684
1026 4.9368137137407739 3.0849739693847633 13.263175152192931 11 22 14 0.49369747205411069 4 388 8 519 2 353 5 290 1 332 11 479 7 483
1027 0.37211349068522553 1.8198586617560497 12.211345720614519 12 138 151 1.5783774826104551 4 516 8 523 2 517 5 258 1 223 2 252 11 707
1029 2.6012769631259984 3.5471181469063051 13.93633213212321 37 44 37 0.64451375682052281 4 391 8 538 2 375 5 294 1 333 11 313 7 242 3 344 13 379
1031 8.5772564467023695 0.98426339736290169 12.490376190726916 136 138 112 1.2108629873707404 4 600 8 558 2 560 1 389 11 567 11 752 15 783 3 578
1033 5.275229458300327 2.0418332039195279 15.683322663915277 119 121 114 0.2013528202495683 14 250 8 588
1035 12.641438561159086 7.9941740678826267 133.58732455399607 3 2 1 1.0976740776410518 12 589 8 596 11 398 3 563 13 670
1036 52.901398859045649 4.5048954518870046 91.35319719007606 157 157 155 0.18927899137220883 4 829 6 650 8 598
1037 40.056420996660648 2.4208775671502907 104.12957603951796 6 3 0 0.43505983976016355 12 570 8 604 11 413
1038 -5.6582781444494428 8.2356800717160201 87.794510965940518 70 37 2 0.504124747876738 15 935 8 626 2 456 5 525 7 587
1039 43.856906857630833 10.660887506653653 111.21379810228568 4 4 3 0.22535754671469665 4 590 6 798 8 628 11 450 12 804 15 932
1040 50.640703632355979 6.5024016737737345 84.671167138661929 77 79 76 1.0228142171115115 4 658 6 684 8 637 4 657 5 518
1041 -3.3648278957596123 7.3216185727998235 114.56082430582357 121 77 26 0.12482342052595467 8 638 7 576 3 576
1042 -3.8817138055464633 5.0636384527636178 90.234483957550594 162 120 44 0.31851688802609812 15 1023 8 640 11 389 7 654 3 574 9 862 13 672
1044 8.6748591056393174 4.7963092882200398 7.695508910369484 187 130 125 0.38603188393007071 8 671 5 468
1045 -0.29041421102715298 3.4664625296460057 11.441668127317861 47 131 123 0.36281864910895034 4 714 8 682 5 556 2 583 1 426
1047 5.6324691453442197 3.4698818993293257 15.50499793608752 72 92 81 1.5443385153311355 14 973 8 697 2 366 1 317
1049 -0.86038990236683366 1.8320346225086945 13.599647866918783 37 42 40 1.0559441559713061 4 920 5 792
1050 1.2001638496716118 3.3857554088458013 14.13458809862143 101 90 79 0.58194434281434859 4 693 8 717 2 538 5 226 11 311
1052 13.045141702710184 9.6493337242385646 121.40383132474295 55 46 2 0.84202934355907733 4 659 12 1154 8 737 11 749 7 598
1053 -12.409772207829429 9.6602516446805229 89.66894192688369 143 105 15 0.62585940676723795 15 1110 8 750 2 602
1055 8.5223580482652714 1.0716250704064847 12.39312388068878 112 115 89 0.36838069314894462 14 1004 8 767 2 566 1 465 11 761
1056 8.3753647148930739 1.0753775788444015 12.566428703192166 109 113 80 0.26004740130345633 14 1012 8 769 2 565 5 647 1 512 11 759
1057 51.386889689494836 3.9478869419119476 89.958399500751526 73 73 71 0.13250060736039715 4 827 6 842 8 777
1058 45.026872539514386 8.7282659807689544 109.50855874467563 54 55 49 0.27579689059831253 6 852 8 799 11 642
1059 -11.909799275824161 5.3366950708813095 100.98445163015813 28 23 17 1.288975532248436 15 1176 8 806 11 799
1060 3.2051821469037081 3.4669044062090522 13.935888935650954 52 65 48 0.61519447683695727 6 897 8 822
1061 3.6881261706185815 4.8759018014875677 17.829632054545918 64 75 66 1.1397780821397867 14 158 8 823
1063 -2.1343557590690856 5.6443632512524529 8.8718258290209633 0 0 0 0.15319901454217255 10 925 15 1142
1064 8.2536053296098792 2.031640260998937 12.699689956746386 48 48 39 0.69391786985294379 14 1126 15 994 8 843 2 642 5 761 1 480 11 737 7 989 9 1077
1066 0.44439503611918685 1.7528481592468472 13.924828304984041 63 64 59 0.4482436751608927 4 786 8 851 2 424 5 648 1 352 11 589 13 846
1068 -1.103534411933949 1.7848782937251808 11.753889707520452 5 149 145 2.0401607023202519 4 995 8 865 2 626 5 837 1 619 1 621
1069 -2.764272608529216 16.706706108151074 110.69075370289075 103 90 73 0.57098342696191906 15 1292 8 887 2 698
1072 43.078991112731366 10.144134634854259 111.51131435450064 77 75 71 0.80435415465015436 4 909 6 955 8 901 5 810 11 750
1073 -0.28638058832642477 2.4345942860581924 11.299342103804783 82 121 58 0.22846714682576566 6 1011 8 911
1074 2.9705445837479174 4.8137454604371062 10.459390890835039 153 175 163 0.06221222527267832 4 952 8 921
1076 8.3735047798718742 1.2630826433764548 12.564367688001823 2 1 0 0.49011794097116806 12 161 6 150 8 181 14 155 15 180 10 232 4 175 2 77 5 130 1 104 11 87 3 130
1077 8.7561266571836534 2.0222747710313378 12.129324812494543 42 42 40 0.29880881726601621 12 869 15 993 10 819 6 794 8 848 4 739 14 1025 2 434 5 606 1 486
1078 9.0429651731128651 1.5985733456886126 11.885397979976101 182 180 148 0.28733599612654909 10 334 6 329 8 314 14 379 15 265 4 370 2 240 12 411 5 309 1 181
1079 7.85416311472739 3.4043204402184637 12.99942373832134 125 159 106 1.9520763222992439 12 815 6 804 8 730 14 1269 12 1149 6 1015 2 551 5 749 1 460 11 652 7 675 13 746 13 934
1080 6.8589929463052126 3.3461912574470252 6.9741567277909118 161 22 19 0.68373286129213695 4 2 8 7
1083 23.684357750415192 -1.0795122140332878 28.216239094025926 0 0 0 1.9211462923573759 4 165 10 216
1084 4.2494750391563638 2.6312261621512092 16.826969960587967 34 34 32 0.129239828907385 14 370 8 264
1085 -1.0372897848782912 4.5754365768743162 16.095556603199359 0 0 0 1.0752217624445388 4 86 15 418
1086 -1.6455369774734983 6.1731991708723974 9.1075165124641462 81 79 74 0.37727798312165595 8 925 9 414
1087 5.8836105707801769 4.4374445093767241 11.865973485088308 234 236 233 0.9269056073734383 2 2 1 2
1088 2.8665036389346645 2.3523543335289481 18.17129990712402 41 43 40 0.058582257923979392 10 11 2 4
1089 0.81074316258480594 0.53850545277967532 14.588209414072153 252 253 255 1.1827566441022972 8 23 5 15 1 7 4 9 11 19
1090 3.8440030604306341 4.7720806344853939 17.250360511881368 44 61 52 0.23752826322130691 14 67 2 12
1091 0.23044440525643389 1.6361316776714729 11.378059664720908 0 143 137 1.7136672789838969 8 68 2 13 5 18 1 431
1092 8.2748774144299411 4.1215182257506688 11.383063112236034 0 0 0 0.81566857401127413 12 210 15 515
1093 20.184800025611509 11.967388997875986 55.428063073938517 43 45 42 2.3513957328755564 8 133 2 25 5 44
1094 6.2586599459400372 3.0211532190068437 14.49621032648907 244 247 243 1.4470790072086073 12 579 2 26 5 47
1095 7.286321688048754 3.0205952752454146 14.030393176299102 248 250 247 1.7175316282381432 4 121 2 27 5 24
1096 5.0865985396971158 4.4386191947299922 13.59271473305513 43 9 8 0.79429701689753207 4 37 8 44 2 30 5 28 1 31 11 33 7 32 9 36 13 40
1097 -2.6004411199181425 4.659263306531999 9.5538442044353857 244 246 243 0.30611078263642011 8 74 2 35
1099 8.3678798478031258 3.6995581030199949 8.8923947106794881 164 28 22 1.0252942790281603 8 125 2 40 5 53 1 35
1100 -1.4627639202365241 4.119364959318629 12.579507047024309 224 228 222 1.6344254495727284 8 46 2 41 5 76 1 45
1101 0.56537967143044798 1.7414392166815131 13.271907721928899 30 31 17 1.1517150342124356 4 109 2 44 5 50 8 131
1104 -1.4179815931340607 2.2714734669602152 12.200154327374397 58 53 52 1.5943837358815813 8 241 2 59 1 535
1105 4.1962036277119417 3.2371887889917348 13.982959601522934 250 254 250 0.97235505625940422 4 95 2 62 1 56
1106 6.0690551104424415 3.2779577251053502 13.692603481030494 237 239 236 1.1948475041052007 4 189 2 64 5 67 1 57 3 453
1107 5.9054505704008387 0.94647422869380304 15.373696774656816 43 45 42 0.23634284390735311 10 87 2 68
1109 -3.7171325783898848 1.7697798370402729 24.882919622811983 174 119 25 0.02191254494690148 15 995 2 72
1113 3.155454589721149 5.342003562147184 14.782765072239725 191 193 190 1.3361379833464917 2 83 5 103 1 112 3 37
1114 3.5113408371709771 4.2401499113524865 10.781284572533949 232 228 223 0.26318446435001119 8 124 2 85 5 105 1 73 11 58
1116 4.9506026439284003 3.9973895541491951 15.043704961336772 0 0 0 0.76293340769436568 14 465 15 156
1118 5.0508576623572141 2.6154063366134963 14.127672007543879 55 64 59 0.29184528868284854 2 97 1 103
1119 6.6245669311683857 2.6063332875314238 13.99022238030612 1 3 1 1.0596288554042363 15 228 2 98 5 133 1 85 14 213
1120 3.793020760341336 3.1427991781214555 16.752140142656422 109 130 121 1.2859435605989298 15 341 2 100 1 126
1121 5.5342211885771473 2.7949054676670952 15.259343332031651 127 153 142 2.1301767500454836 10 408 11 344 5 108 12 899
1122 1.4558819421092879 0.89180168406572258 14.584296377050542 209 209 207 0.63965872688683389 4 151 2 105 5 161 1 96
1123 9.1860529846116084 0.63528919441439413 12.023805062503712 234 197 153 0.84023083489643968 15 774 2 106 1 49
1126 -1.1240826827178831 3.9667495533387864 12.594360631061004 29 108 98 1.2317223810344784 8 248 2 126 1 113
1127 0.94026710150604309 4.7385367334733273 20.034621664382559 45 46 35 2.4105569674431422 10 63 2 131
1129 1.1588596559347302 4.1258195933480266 14.621801345105872 103 94 81 1.9599019326018965 4 261 2 138
1130 0.26037402836752355 2.7684891701833276 11.904560838467416 90 171 161 0.6123346806847545 8 120 2 139 5 68 1 155
1131 -0.74572251183311922 3.113932063819548 11.540847267793723 30 149 141 0.60456313471739576 8 176 2 140 1 152
1132 9.0726264572676047 0.81979902449815045 11.803314588255281 1 2 7 0.70321217189800134 12 183 2 146 5 173 1 128 4 460
1135 -0.9404627298749928 1.4275251830313351 22.017361729172141 1 1 0 0.6061985378086826 15 500 2 155
1136 -1.2246101671943896 0.81181684305288715 22.9147704727249 170 106 0 1.1870442045647471 15 505 2 158
1137 54.999292571939002 20.824116363963341 118.56375531671718 139 115 95 0.5049350197831084 4 280 8 261 2 160 5 159 1 140
1139 57.009182881020358 16.44784868683611 106.39979819589796 29 15 1 0.20695371282451142 4 366 8 333 2 168 5 195
1141 7.72235035731258 4.5763660084206474 8.513188034369227 178 148 146 0.33005217293929423 8 369 2 176 5 209 1 151
1144 -1.3582879577457234 1.8742948865467157 12.446325399201589 67 211 219 1.9191701785779949 8 235 2 190 5 52 2 37 1 46
1145 5.3690066181392524 3.3980294574532985 15.357228558056605 43 57 50 1.7359127655223792 12 1022 2 195
1147 8.7229417828127449 2.1922194474353858 12.242939946424075 5 7 2 0.70957863177528857 14 252 2 201 5 305
1149 8.429051605383842 1.7831719982068621 12.534389779861094 1 0 0 0.42673654255620413 8 315 14 411 2 213 1 182 11 335
1150 1.3363345774778512 3.4579146086930335 20.261421070005284 1 2 0 0.80627801442263747 10 414 2 214
1151 39.78999267002083 15.999828924899404 107.22457025738561 51 47 36 0.23088723988504165 4 425 8 344 2 216 5 284
1153 0.90518415585243017 4.2074908367619495 19.668299773571238 17 19 10 0.88104542011515707 10 132 14 671 1 167
1154 5.8674031980625996 3.0893555059444515 15.103030556394085 51 53 50 1.4192091830458773 12 302 2 224 1 143
1155 4.0196953214127698 3.4489375375716382 16.60560604215355 50 56 52 2.0753703811490714 15 1013 2 225 1 145
1157 -2.8010638914997465 4.4913347819972831 9.037470239308723 43 43 41 1.646866789805254 8 249 2 253 1 92 11 330 13 595
1158 2.8861093409828773 4.3230005600206898 10.30883235460994 22 115 106 0.75973361073767698 4 361 2 262 5 204 1 199 11 231 7 387
1162 7.59053845983623 0.68800526379481075 13.535052211407338 233 210 176 0.72829649447400102 10 674 2 278 1 228
1165 7.458392405467964 2.1733600168237315 13.785128369981617 60 62 59 1.5571634151626932 14 178 2 286 5 110 10 106
1168 51.810856641503939 15.986800528083242 99.53817675307819 81 71 61 0.60609692298370221 4 616 8 544 2 305 5 545
1169 65.184893044308367 15.8789416405673 104.12528339085983 94 83 76 0.34256432678432519 4 620 2 310 5 546
1170 1.2331352623581728 2.8126374157849297 19.255673025825935 0 3 2 1.3658610253480301 15 1188 1 279
1171 7.3775549262869342 1.4944412966355733 13.525491445035863 63 63 61 1.8351051985950264 10 479 2 325 11 440 7 300
1172 7.7874122701364135 1.1578395256353076 13.118639676245639 3 5 0 0.20479159203413394 15 824 2 334 1 280 11 431 9 587
1175 7.3453028777167502 0.96306134556797629 13.480043724569196 55 55 53 1.5758863378856003 10 666 2 338 1 193 4 217 7 191
1176 1.1912451763164187 3.0773615300471664 14.150831715278301 101 92 79 0.51573006169192259 8 532 2 349 5 323 1 219 11 472
1177 -1.2710172160669257 1.7796745687384974 12.09840014740276 20 165 170 1.0961887248215085 8 524 2 354 5 443 1 325 11 701
1178 0.41701118798392889 1.9442277869130979 12.139244288917368 83 214 216 0.78870121759284006 8 371 2 355 5 327 1 327
1179 7.216625741469505 4.6886719387498017 13.036833406830317 162 162 160 0.44008288841239712 8 650 5 453 2 358 1 208 11 514
1182 -0.60324322373890993 1.6336541169016525 12.627805000920704 85 199 195 1.1302669687725388 8 457 2 363 5 367 11 495
1183 5.9031441136188061 3.3129555840918909 14.957371073945746 70 82 76 1.0467992588154968 15 633 2 364 1 319
1184 4.7832101285363846 3.3269997342257671 14.132338684033479 0 0 0 0.26831002289300904 10 417 12 880
1186 -1.2407392619750781 1.6920640978684647 12.450451639698944 85 220 220 0.81481344176112236 8 463 2 376 5 333 1 210
1188 -0.26866607524885266 2.6129758877765479 11.362433120051794 45 147 125 0.87949300562103039 8 303 2 400 5 403 1 417 9 624 13 567
1189 4.6677926246493451 0.33680421987208276 16.635610511832915 164 147 130 0.066833920841704128 10 52 2 401
1190 9.1475522354658132 1.1844760867224664 11.643365934865685 81 73 62 0.86930317140254321 12 493 15 711 2 404 1 341
1191 9.2514247308285782 1.4662442310491723 11.749722970005214 81 74 63 1.2863385083208583 14 1037 15 810 2 416
1192 9.282497701299242 1.3829819447074212 11.73947423552535 85 77 66 1.606999425453693 6 429 2 420 1 568 5 661
1193 -2.2903153831907122 3.3107291502233749 8.1845384230623193 27 29 26 1.9631898070641156 8 945 2 426
1194 4.9626524590269625 2.4368686243524382 14.098299418067837 62 78 71 0.57322271020211535 2 429 5 767 3 411
1195 7.9390158357597214 2.453730565073776 13.036556702583146 41 48 36 0.66706266181712648 14 957 2 431 11 693
1196 1.9622410077411583 3.6166431376727775 19.484533992858136 70 71 66 1.3383781818149885 15 1293 2 436
1197 1.6895988861846127 3.4249758578284308 18.983443727099438 5 6 2 2.6021017449971597 15 347 2 438 1 343
1198 0.59221082171308492 1.7216013794753311 14.753770353827637 12 15 9 1.9777053534626445 2 441 3 792 13 500
1199 55.890066028368636 16.575433190398755 99.419162213492555 87 78 56 0.34854258647206166 4 615 8 566 2 448 5 543
1200 9.0178661564002507 0.9278863674518617 11.920962944556038 138 133 102 0.19001573179936007 8 768 2 462 5 471 1 396
1202 -1.4691110068143556 1.5293335917744366 22.707643901209824 65 57 52 0.65363652707826558 15 485 2 471
1204 2.1091918072388891 4.3285623441657215 10.523000862840158 31 106 93 1.2083427329539902 8 672 2 501 5 585 11 671 1 555
1205 5.9287991067522956 4.8239291433365477 10.385377625815725 189 191 186 1.9843894881691606 8 829 2 502 5 583 1 200
1206 3.2801829423903794 5.2769201640396597 12.190894314209567 24 113 103 0.18756838397203884 2 504 11 518
1207 -1.1247763810409181 2.8724987202357535 11.748253775733073 13 41 20 0.16112375208952745 8 503 2 514 1 300
1210 5.2162692124699426 3.5292627301604522 15.755721037285857 75 89 82 2.5119437767292223 12 385 14 657 2 531 5 607 1 313 1 437 15 441 15 1201
1212 5.1328523520109792 4.4405114100084386 15.366203236890705 103 123 112 1.9999063519160427 10 38 2 540 5 625 1 534
1213 0.93800775419366966 3.1156619443877878 13.855884882486393 120 111 96 0.33905858935308553 8 722 2 542 5 602 1 454 11 719
1214 3.6495995515451591 3.8331938603197284 17.042684357324639 106 119 109 1.9449617057129192 15 1148 2 543 1 433
1215 -0.57371236810783111 1.8378834961017381 11.687542290331079 0 144 139 2.0550635514238262 4 881 2 545 5 626
1216 7.8297008104301256 3.5350656265026825 13.023247163390916 99 134 80 0.12231460410437961 14 903 2 547 7 668 13 740
1217 3.1816650709750411 3.2130478568629535 13.846267310179671 46 63 55 0.59312691120508199 4 491 2 548 1 451
1221 6.6644646082835015 2.2186028161991946 14.503979186110739 57 59 56 1.4047373635229476 15 671 2 577 5 651 1 474
1223 6.8996500821290763 2.1574631747420479 14.160993286320217 53 53 51 2.0345493527509548 12 122 15 110 2 585
1224 50.17207659213868 16.122120053127905 112.48152157935091 25 16 11 0.20962687010354769 4 621 8 877 2 593 5 706
1226 -0.28002679219755866 3.0022730856785174 11.310965734687009 41 129 113 2.0361560787327222 8 647 2 618 5 719 1 600 11 828 7 857 13 990 13 991 14 989
1229 0.32719201245932139 1.9610167732464172 11.8414666133538 32 153 143 1.3837211635775972 4 524 8 702 2 627 1 548 11 694 5 416 7 508 3 397
1231 4.9162607328285581 2.9566315353234276 13.948166455987245 68 88 79 1.8813616965759106 2 634 5 779 1 443 2 528
1232 0.88524261979107832 5.1082238414542491 19.62228114262313 80 76 61 1.8169708570306087 14 210 1 551
1233 0.043739017726080145 3.9991158161635822 11.825840003040542 49 148 145 0.81491912633065255 8 918 2 639 1 559 5 592 11 512 7 573 13 602 3 664
1234 6.9259080606271759 2.3340041644872382 14.033086607985361 56 56 54 1.3204754133916152 10 140 2 641 5 441
